-0.347928 -0.408094 -0.339166 0.000000 0.000000 1.000000
0.005657 -0.128722 0.200875 0.500000 0.500000 0.000000
0.755709 -0.291242 0.218218 0.300000 0.000000 0.600000
-0.689486 -0.078106 0.227703 0.300000 0.000000 0.600000
0.448997 -0.426638 0.266216 0.600000 0.000000 0.300000
-0.730556 0.416507 0.004286 0.600000 0.300000 0.000000
-0.348641 0.487109 -0.177691 1.000000 0.000000 0.000000
0.216606 0.140570 0.615319 0.600000 0.300000 0.000000
-0.605097 -0.427851 -0.353997 0.000000 0.000000 1.000000
0.101579 -0.498825 -0.353997 0.000000 0.000000 1.000000
-0.703694 -0.533756 0.118299 0.600000 0.300000 0.000000
0.169399 -0.371505 0.639565 0.600000 0.000000 0.300000
-0.748577 -0.513663 -0.008239 0.300000 0.000000 0.600000
-0.177770 0.487109 -0.396969 1.000000 0.000000 0.000000
0.112714 -0.381202 0.207146 1.000000 0.000000 0.000000
0.312405 -0.242130 0.543391 0.600000 0.300000 0.000000
-0.703694 -0.169618 -0.254038 0.600000 0.300000 0.000000
-0.138605 0.487109 0.012383 1.000000 0.000000 0.000000
0.043422 0.522862 0.141038 1.000000 0.000000 0.000000
-0.151880 0.487109 -0.093301 1.000000 0.000000 0.000000
0.395676 -0.381202 0.049690 1.000000 0.000000 0.000000
0.755709 -0.056943 0.131120 0.300000 0.000000 0.600000
-0.182319 -0.381202 -0.442154 1.000000 0.000000 0.000000
0.442983 -0.379256 0.463843 0.600000 0.000000 0.300000
0.207633 0.522862 -0.001681 1.000000 0.000000 0.000000
-0.529358 -0.408064 -0.457434 1.000000 0.000000 0.000000
0.465656 0.088556 0.422728 0.600000 0.300000 0.000000
0.163468 0.487109 -0.393632 1.000000 0.000000 0.000000
0.202384 -0.136988 0.648390 0.600000 0.000000 0.300000
-0.439007 0.003493 -0.274028 0.300000 0.600000 0.000000
0.055710 -0.408064 0.170522 1.000000 0.000000 0.000000
0.567076 -0.381202 -0.205680 1.000000 0.000000 0.000000
-0.703694 0.211999 -0.040242 0.600000 0.300000 0.000000
-0.730556 -0.079178 0.136278 0.600000 0.300000 0.000000
0.584134 -0.420496 -0.353997 0.000000 0.000000 1.000000
0.011453 -0.381202 0.078212 1.000000 0.000000 0.000000
0.110252 0.487109 0.093335 1.000000 0.000000 0.000000
-0.573555 0.522862 0.153847 1.000000 0.000000 0.000000
0.755709 -0.158010 -0.223541 0.300000 0.000000 0.600000
-0.667746 0.522862 0.042963 1.000000 0.000000 0.000000
0.238919 -0.075176 0.598565 0.600000 0.300000 0.000000
0.755709 0.065784 -0.209251 0.300000 0.000000 0.600000
-0.703694 -0.497083 0.029471 0.600000 0.300000 0.000000
-0.230891 -0.470418 -0.353997 0.000000 0.000000 1.000000
-0.024262 -0.257209 0.254565 0.300000 0.000000 0.600000
0.755709 0.242053 -0.403931 0.300000 0.000000 0.600000
0.755709 -0.067801 0.066362 0.300000 0.000000 0.600000
-0.259536 0.304965 0.236657 0.800000 0.200000 0.500000
0.246918 -0.068015 -0.374840 0.600000 0.000000 0.300000
-0.031063 0.487109 0.096749 1.000000 0.000000 0.000000
-0.730556 0.392553 -0.391027 0.600000 0.300000 0.000000
-0.132714 -0.059235 0.232180 0.800000 0.200000 0.500000
-0.168397 -0.174516 0.236657 0.800000 0.200000 0.500000
-0.204311 -0.381202 0.079578 1.000000 0.000000 0.000000
0.229933 -0.068015 0.147074 0.600000 0.000000 0.300000
0.508963 -0.381202 0.189623 1.000000 0.000000 0.000000
-0.693546 -0.011538 0.227703 0.300000 0.000000 0.600000
0.531971 -0.094877 -0.377268 0.600000 0.000000 0.300000
-0.387079 0.394538 0.227703 0.300000 0.000000 0.600000
0.755812 0.490481 -0.034920 1.000000 0.000000 0.000000
0.230573 -0.530388 0.272537 0.600000 0.000000 0.300000
-0.026919 0.473307 0.259725 0.500000 0.000000 0.500000
-0.003829 -0.415498 0.254658 0.600000 0.000000 0.300000
0.133164 0.522862 -0.332040 1.000000 0.000000 0.000000
0.402158 -0.381202 -0.128122 1.000000 0.000000 0.000000
-0.193409 0.415681 0.250281 0.000000 1.000000 0.000000
-0.730556 0.434575 0.226815 0.600000 0.300000 0.000000
0.773399 -0.462609 0.029339 0.800000 0.200000 0.500000
-0.292017 -0.381202 -0.226793 1.000000 0.000000 0.000000
-0.730556 0.145106 -0.444796 0.600000 0.300000 0.000000
0.728847 -0.505275 -0.248912 0.300000 0.000000 0.600000
0.453999 0.505017 0.068259 1.000000 0.000000 0.000000
0.463083 0.487109 -0.247603 1.000000 0.000000 0.000000
0.342939 -0.381202 -0.152255 1.000000 0.000000 0.000000
0.082401 -0.094877 0.040214 0.600000 0.000000 0.300000
0.276877 -0.381202 -0.387228 1.000000 0.000000 0.000000
-0.149066 0.487109 -0.343286 1.000000 0.000000 0.000000
0.520896 0.522862 -0.051968 1.000000 0.000000 0.000000
-0.703694 -0.492224 0.142188 0.600000 0.300000 0.000000
-0.730556 0.336100 -0.381234 0.600000 0.300000 0.000000
-0.053721 -0.023369 -0.144529 0.300000 0.600000 0.000000
0.755709 0.000552 0.207679 0.300000 0.000000 0.600000
0.755324 0.522862 0.141335 1.000000 0.000000 0.000000
0.480147 0.487109 0.212740 1.000000 0.000000 0.000000
-0.488751 -0.466915 0.227796 0.600000 0.000000 0.300000
0.591914 -0.521991 -0.353997 0.000000 0.000000 1.000000
0.755709 0.039328 -0.126403 0.300000 0.000000 0.600000
0.173011 -0.408251 0.254658 0.600000 0.000000 0.300000
0.481294 0.504954 -0.015281 1.000000 0.000000 0.000000
0.387543 0.522862 0.163457 1.000000 0.000000 0.000000
-0.488693 -0.514683 0.227796 0.600000 0.000000 0.300000
0.241643 0.487109 -0.204893 1.000000 0.000000 0.000000
0.755709 -0.383820 0.000299 0.300000 0.000000 0.600000
0.728847 0.364102 -0.065677 0.300000 0.000000 0.600000
0.352982 -0.490160 -0.353997 0.000000 0.000000 1.000000
-0.354062 -0.462257 0.254629 0.600000 0.000000 0.300000
0.755491 -0.534574 -0.413991 0.800000 0.200000 0.500000
-0.703694 0.324798 -0.073582 0.600000 0.300000 0.000000
0.239101 0.522862 -0.062448 1.000000 0.000000 0.000000
0.139322 -0.094877 -0.331100 0.600000 0.000000 0.300000
-0.008248 0.014039 0.209829 0.500000 0.500000 0.000000
-0.703694 0.168664 0.215441 0.600000 0.300000 0.000000
0.728847 0.228748 -0.323447 0.300000 0.000000 0.600000
0.316412 -0.408064 -0.100795 1.000000 0.000000 0.000000
-0.534585 -0.479092 0.272537 0.600000 0.000000 0.300000
0.643888 -0.408064 0.147342 1.000000 0.000000 0.000000
-0.390326 -0.381202 -0.295052 1.000000 0.000000 0.000000
-0.730556 0.137024 0.012875 0.600000 0.300000 0.000000
0.644687 -0.163697 0.293906 0.600000 0.300000 0.000000
0.663643 -0.460435 -0.327135 0.000000 0.000000 1.000000
-0.730556 0.329486 0.012753 0.600000 0.300000 0.000000
-0.703694 0.052118 0.225609 0.600000 0.300000 0.000000
-0.556565 -0.023369 -0.317047 0.300000 0.600000 0.000000
-0.403856 -0.023369 -0.388853 0.300000 0.600000 0.000000
-0.587708 0.522862 -0.036136 1.000000 0.000000 0.000000
0.749716 0.522862 -0.107600 1.000000 0.000000 0.000000
-0.436251 -0.408064 0.019041 1.000000 0.000000 0.000000
0.100454 0.487109 0.043898 1.000000 0.000000 0.000000
-0.312835 0.487109 -0.061109 1.000000 0.000000 0.000000
0.215575 -0.094877 -0.195275 0.600000 0.000000 0.300000
-0.673467 -0.381202 -0.226788 1.000000 0.000000 0.000000
0.456554 0.170374 0.435161 0.600000 0.300000 0.000000
-0.730556 -0.345671 -0.413137 0.600000 0.300000 0.000000
0.728847 0.067390 -0.011631 0.300000 0.000000 0.600000
-0.598215 0.474530 0.259886 0.500000 0.000000 0.500000
0.054636 -0.435421 0.227796 0.600000 0.000000 0.300000
-0.184861 -0.408064 0.146396 1.000000 0.000000 0.000000
0.135960 0.522862 -0.085888 1.000000 0.000000 0.000000
-0.730556 -0.104302 -0.312795 0.600000 0.300000 0.000000
0.093128 -0.381202 -0.235867 1.000000 0.000000 0.000000
-0.229835 0.035027 0.243086 0.300000 0.000000 0.600000
0.688648 0.522862 -0.124362 1.000000 0.000000 0.000000
-0.202949 -0.551080 -0.333256 0.000000 0.000000 1.000000
-0.598781 -0.408064 -0.258043 1.000000 0.000000 0.000000
-0.454972 0.487109 -0.259970 1.000000 0.000000 0.000000
0.773399 -0.504694 0.131276 0.800000 0.200000 0.500000
-0.730556 -0.019711 -0.045506 0.600000 0.300000 0.000000
0.174938 -0.448684 -0.353997 0.000000 0.000000 1.000000
-0.077854 -0.023369 -0.400512 0.300000 0.600000 0.000000
0.324503 -0.068015 -0.177593 0.600000 0.000000 0.300000
-0.158816 -0.381202 0.090866 1.000000 0.000000 0.000000
-0.215233 0.277610 0.236657 0.800000 0.200000 0.500000
-0.351387 -0.381202 0.150837 1.000000 0.000000 0.000000
0.728847 0.388899 0.170684 0.300000 0.000000 0.600000
-0.604921 -0.381202 -0.146413 1.000000 0.000000 0.000000
-0.124545 -0.023369 -0.152873 0.300000 0.600000 0.000000
0.478938 0.413172 0.439751 0.600000 0.000000 0.300000
-0.703694 0.201794 0.119199 0.600000 0.300000 0.000000
0.349070 -0.068015 0.126800 0.600000 0.000000 0.300000
0.574326 -0.068015 0.019862 0.600000 0.000000 0.300000
-0.348767 -0.469319 -0.327135 0.000000 0.000000 1.000000
0.728847 -0.505626 0.079310 0.300000 0.000000 0.600000
0.773399 -0.470347 0.241521 0.800000 0.200000 0.500000
0.795360 0.504954 0.065240 1.000000 0.000000 0.000000
0.456898 -0.068015 -0.164924 0.600000 0.000000 0.300000
0.000727 -0.023369 0.106552 0.300000 0.600000 0.000000
-0.526548 0.522862 -0.377256 1.000000 0.000000 0.000000
0.071398 -0.068015 -0.369469 0.600000 0.000000 0.300000
0.755709 0.192078 0.132153 0.300000 0.000000 0.600000
-0.637110 -0.383260 -0.461642 1.000000 0.000000 0.000000
0.264638 -0.094877 -0.061506 0.600000 0.000000 0.300000
0.582621 -0.068015 0.161778 0.600000 0.000000 0.300000
-0.597961 0.003493 -0.005214 0.300000 0.600000 0.000000
-0.337957 0.053536 0.245611 0.300000 0.000000 0.600000
-0.374329 -0.225004 0.236657 0.800000 0.200000 0.500000
0.728847 0.214905 -0.233329 0.300000 0.000000 0.600000
0.426712 -0.101433 0.457566 0.600000 0.000000 0.300000
-0.687101 -0.435645 -0.155059 0.600000 0.000000 0.300000
0.628231 0.522862 -0.003767 1.000000 0.000000 0.000000
0.628051 -0.433163 0.272275 0.600000 0.000000 0.300000
0.722788 -0.083257 0.198457 0.600000 0.000000 0.300000
-0.320269 -0.381202 0.112343 1.000000 0.000000 0.000000
-0.738984 0.522862 0.202700 1.000000 0.000000 0.000000
-0.108882 -0.381202 0.093557 1.000000 0.000000 0.000000
0.195018 -0.408064 0.194410 1.000000 0.000000 0.000000
-0.703694 -0.093147 0.021273 0.600000 0.300000 0.000000
0.615952 0.487109 -0.240026 1.000000 0.000000 0.000000
0.700808 0.448363 0.254799 0.000000 1.000000 0.000000
0.235984 0.333284 0.595170 0.600000 0.300000 0.000000
-0.385287 0.522862 -0.420540 1.000000 0.000000 0.000000
-0.575755 -0.408064 -0.393360 1.000000 0.000000 0.000000
-0.027703 -0.408064 -0.266241 1.000000 0.000000 0.000000
0.149210 -0.551080 -0.348186 0.000000 0.000000 1.000000
0.728847 0.362692 -0.204020 0.300000 0.000000 0.600000
-0.546216 0.003493 -0.135362 0.300000 0.600000 0.000000
-0.631792 -0.337903 0.227703 0.300000 0.000000 0.600000
0.311701 0.522862 0.154091 1.000000 0.000000 0.000000
-0.703694 -0.180321 0.021522 0.600000 0.300000 0.000000
0.728847 -0.224534 -0.367310 0.300000 0.000000 0.600000
-0.604533 -0.381202 0.099375 1.000000 0.000000 0.000000
0.728847 -0.370901 -0.300764 0.300000 0.000000 0.600000
0.284213 -0.381202 0.165913 1.000000 0.000000 0.000000
-0.001334 0.015566 -0.434780 0.500000 0.000000 0.500000
-0.076827 0.522862 -0.372937 1.000000 0.000000 0.000000
-0.730556 0.147928 -0.364827 0.600000 0.300000 0.000000
-0.578524 -0.408064 0.178840 1.000000 0.000000 0.000000
-0.239200 -0.065771 0.232180 0.800000 0.200000 0.500000
-0.730556 -0.086808 -0.057722 0.600000 0.300000 0.000000
-0.293860 0.522862 0.248696 1.000000 0.000000 0.000000
-0.612551 -0.551547 0.229034 0.600000 0.000000 0.300000
-0.358493 0.322928 0.245611 0.300000 0.000000 0.600000
-0.169130 0.522862 -0.299557 1.000000 0.000000 0.000000
-0.730556 0.231111 -0.421004 0.600000 0.300000 0.000000
0.560975 -0.148031 0.356760 0.600000 0.300000 0.000000
-0.521158 0.085266 0.232180 0.800000 0.200000 0.500000
-0.524982 0.487109 -0.035320 1.000000 0.000000 0.000000
0.755709 0.048099 -0.357288 0.300000 0.000000 0.600000
0.728847 0.126541 -0.138243 0.300000 0.000000 0.600000
0.755709 0.317495 -0.297116 0.300000 0.000000 0.600000
0.348863 -0.432157 -0.300191 0.600000 0.300000 0.000000
0.637126 0.504954 0.103393 1.000000 0.000000 0.000000
0.728847 0.424580 -0.426646 0.300000 0.000000 0.600000
-0.486736 -0.023369 -0.075116 0.300000 0.600000 0.000000
0.151498 0.487109 0.172366 1.000000 0.000000 0.000000
0.019594 -0.408064 -0.252096 1.000000 0.000000 0.000000
-0.748577 -0.437953 0.219136 0.300000 0.000000 0.600000
-0.703694 0.051275 -0.064975 0.600000 0.300000 0.000000
0.672839 -0.428809 0.227796 0.600000 0.000000 0.300000
0.563388 -0.408064 0.030699 1.000000 0.000000 0.000000
0.406511 0.487109 -0.253511 1.000000 0.000000 0.000000
-0.201748 -0.023369 -0.260433 0.300000 0.600000 0.000000
-0.023316 -0.239021 -0.437844 0.500000 0.000000 0.500000
0.728847 0.441617 -0.348863 0.300000 0.000000 0.600000
-0.343041 0.142187 0.236657 0.800000 0.200000 0.500000
0.463908 -0.417018 0.223291 0.300000 0.000000 0.600000
0.345211 0.487109 -0.330016 1.000000 0.000000 0.000000
0.755709 -0.104241 0.109812 0.300000 0.000000 0.600000
-0.357647 0.522862 0.138102 1.000000 0.000000 0.000000
0.728847 -0.337488 -0.455652 0.300000 0.000000 0.600000
0.638550 0.124212 0.298515 0.600000 0.300000 0.000000
0.698718 0.487109 -0.359212 1.000000 0.000000 0.000000
-0.441790 0.487109 -0.205354 1.000000 0.000000 0.000000
-0.462682 0.504954 -0.021665 1.000000 0.000000 0.000000
-0.703694 -0.070640 -0.142804 0.600000 0.300000 0.000000
-0.577419 -0.495474 0.227796 0.600000 0.000000 0.300000
0.773399 -0.443031 0.195977 0.800000 0.200000 0.500000
0.542922 0.424051 0.254799 0.000000 1.000000 0.000000
0.439157 -0.477790 -0.353997 0.000000 0.000000 1.000000
0.384774 -0.424127 0.254658 0.600000 0.000000 0.300000
-0.703694 -0.053846 0.099960 0.600000 0.300000 0.000000
0.728847 -0.526389 -0.079875 0.300000 0.000000 0.600000
-0.143879 -0.022950 -0.431234 0.300000 0.600000 0.000000
-0.171365 0.522862 0.085083 1.000000 0.000000 0.000000
-0.506706 0.314907 0.236657 0.800000 0.200000 0.500000
-0.562503 -0.504685 -0.327135 0.000000 0.000000 1.000000
-0.095825 0.522862 -0.177170 1.000000 0.000000 0.000000
-0.004466 0.522862 0.204840 1.000000 0.000000 0.000000
0.473876 -0.408064 -0.291088 1.000000 0.000000 0.000000
-0.464892 0.493089 0.270730 0.500000 0.000000 0.500000
-0.095819 0.487109 0.038837 1.000000 0.000000 0.000000
0.685009 -0.381202 -0.349461 1.000000 0.000000 0.000000
0.684582 -0.094877 -0.203403 0.600000 0.000000 0.300000
0.309712 -0.408064 -0.415616 1.000000 0.000000 0.000000
-0.207644 0.487109 0.041549 1.000000 0.000000 0.000000
0.412024 0.487109 -0.140672 1.000000 0.000000 0.000000
-0.730556 0.129262 0.170134 0.600000 0.300000 0.000000
0.520036 -0.068015 -0.041206 0.600000 0.000000 0.300000
-0.415324 -0.381202 -0.010694 1.000000 0.000000 0.000000
0.755709 -0.008628 0.132899 0.300000 0.000000 0.600000
0.755709 0.049352 0.201529 0.300000 0.000000 0.600000
-0.088187 -0.023369 0.191691 0.300000 0.600000 0.000000
0.446379 0.522862 0.241483 1.000000 0.000000 0.000000
0.552377 -0.477399 0.254658 0.600000 0.000000 0.300000
0.555371 0.522862 -0.097354 1.000000 0.000000 0.000000
0.750504 -0.121579 0.254648 0.300000 0.000000 0.600000
-0.361662 0.003493 -0.159156 0.300000 0.600000 0.000000
-0.645868 -0.023369 -0.207700 0.300000 0.600000 0.000000
-0.513658 -0.023369 -0.035748 0.300000 0.600000 0.000000
-0.703694 0.340513 0.216305 0.600000 0.300000 0.000000
-0.265200 0.487109 -0.159812 1.000000 0.000000 0.000000
-0.611345 0.505017 -0.342266 1.000000 0.000000 0.000000
-0.421752 -0.381202 0.109912 1.000000 0.000000 0.000000
-0.748577 -0.550059 -0.403979 0.300000 0.000000 0.600000
-0.730556 -0.089372 -0.234072 0.600000 0.300000 0.000000
0.755709 0.161824 -0.421965 0.300000 0.000000 0.600000
-0.769567 0.522862 -0.413380 1.000000 0.000000 0.000000
-0.672074 0.392433 0.227703 0.300000 0.000000 0.600000
-0.722196 -0.551559 -0.146997 0.600000 0.300000 0.000000
-0.446643 -0.381202 -0.440541 1.000000 0.000000 0.000000
0.320853 0.522862 -0.163788 1.000000 0.000000 0.000000
0.728847 -0.168393 0.030758 0.300000 0.000000 0.600000
0.532164 0.398202 0.367194 0.600000 0.000000 0.300000
-0.627674 0.487109 0.103523 1.000000 0.000000 0.000000
-0.572763 -0.389616 0.227796 0.600000 0.000000 0.300000
-0.729401 -0.413368 -0.461660 0.600000 0.300000 0.000000
0.612231 -0.542234 0.272537 0.600000 0.000000 0.300000
-0.259250 -0.408064 -0.400590 1.000000 0.000000 0.000000
-0.000592 -0.023369 -0.108951 0.300000 0.600000 0.000000
-0.128930 0.487109 0.131738 1.000000 0.000000 0.000000
0.752404 0.522862 -0.186975 1.000000 0.000000 0.000000
-0.571640 0.522862 -0.279119 1.000000 0.000000 0.000000
-0.274241 0.522862 -0.066065 1.000000 0.000000 0.000000
-0.543458 0.003493 -0.402833 0.300000 0.600000 0.000000
0.251397 -0.450273 -0.353997 0.000000 0.000000 1.000000
-0.673376 0.003493 -0.294465 0.300000 0.600000 0.000000
0.156832 0.522862 -0.229260 1.000000 0.000000 0.000000
-0.748733 -0.484199 -0.292302 0.300000 0.000000 0.600000
0.755709 0.269691 0.137086 0.300000 0.000000 0.600000
0.086325 0.522862 -0.401125 1.000000 0.000000 0.000000
0.348824 0.473906 0.227937 0.000000 1.000000 0.000000
0.628321 -0.408064 -0.408616 1.000000 0.000000 0.000000
-0.703694 0.012358 0.042771 0.600000 0.300000 0.000000
0.395988 0.154839 0.475036 0.600000 0.300000 0.000000
0.728847 -0.447397 -0.151850 0.300000 0.000000 0.600000
-0.541754 0.487109 0.130621 1.000000 0.000000 0.000000
-0.547481 0.504954 0.068686 1.000000 0.000000 0.000000
0.349490 -0.408064 0.125138 1.000000 0.000000 0.000000
0.279204 -0.434581 -0.314157 0.600000 0.300000 0.000000
0.501246 0.487109 0.041349 1.000000 0.000000 0.000000
0.728847 -0.108221 -0.098319 0.300000 0.000000 0.600000
-0.118074 0.522862 -0.410239 1.000000 0.000000 0.000000
-0.645043 -0.008919 0.254565 0.300000 0.000000 0.600000
0.718580 0.487109 -0.430123 1.000000 0.000000 0.000000
-0.228533 0.522862 0.145960 1.000000 0.000000 0.000000
0.388083 0.504954 -0.014598 1.000000 0.000000 0.000000
0.573713 0.487109 0.203066 1.000000 0.000000 0.000000
-0.737146 0.479747 0.013508 0.000000 0.500000 0.500000
0.728847 0.014193 -0.449139 0.300000 0.000000 0.600000
-0.396848 -0.551557 0.271690 0.600000 0.000000 0.300000
0.010876 0.424473 -0.461642 0.500000 0.000000 0.500000
-0.295162 0.003493 -0.270432 0.300000 0.600000 0.000000
0.569284 -0.068015 -0.289496 0.600000 0.000000 0.300000
-0.703694 -0.037359 -0.195953 0.600000 0.300000 0.000000
-0.604418 -0.381202 0.016029 1.000000 0.000000 0.000000
-0.703694 -0.305677 0.048308 0.600000 0.300000 0.000000
-0.421464 -0.427105 0.227989 0.300000 0.000000 0.600000
-0.703694 -0.202686 -0.444213 0.600000 0.300000 0.000000
0.755709 0.334005 0.097417 0.300000 0.000000 0.600000
0.574470 -0.094877 -0.203075 0.600000 0.000000 0.300000
-0.730550 0.491213 0.081169 1.000000 0.000000 0.000000
-0.032642 -0.513394 -0.327135 0.000000 0.000000 1.000000
0.615399 0.483902 0.263010 0.500000 0.000000 0.500000
0.614210 0.413172 0.307880 0.600000 0.000000 0.300000
-0.502369 -0.023369 0.074786 0.300000 0.600000 0.000000
0.497484 -0.347060 0.393233 0.600000 0.000000 0.300000
0.175035 0.487109 -0.086614 1.000000 0.000000 0.000000
-0.647679 -0.486286 -0.327135 0.000000 0.000000 1.000000
-0.148604 -0.521175 0.227796 0.600000 0.000000 0.300000
-0.670447 -0.136985 0.227703 0.300000 0.000000 0.600000
-0.703694 0.035903 -0.210526 0.600000 0.300000 0.000000
-0.490475 0.133216 0.232180 0.800000 0.200000 0.500000
0.546231 -0.478188 -0.327135 0.000000 0.000000 1.000000
0.197300 0.350440 0.652207 0.600000 0.000000 0.300000
-0.170383 -0.408064 0.058263 1.000000 0.000000 0.000000
-0.150680 -0.381202 -0.092811 1.000000 0.000000 0.000000
0.137079 -0.381202 -0.101453 1.000000 0.000000 0.000000
-0.260300 0.190450 0.232180 0.800000 0.200000 0.500000
0.572926 -0.279631 0.342187 0.600000 0.300000 0.000000
0.016193 -0.408064 -0.069314 1.000000 0.000000 0.000000
-0.703694 0.448079 0.020981 0.600000 0.300000 0.000000
-0.742318 0.504461 0.266375 0.000000 0.500000 0.500000
-0.002237 -0.023369 0.181718 0.300000 0.600000 0.000000
-0.337720 0.003493 -0.086841 0.300000 0.600000 0.000000
-0.431052 0.522862 0.233661 1.000000 0.000000 0.000000
-0.558773 0.487109 -0.417933 1.000000 0.000000 0.000000
-0.677019 -0.430924 -0.016218 0.600000 0.000000 0.300000
0.697839 -0.094877 -0.043954 0.600000 0.000000 0.300000
0.140549 -0.068015 -0.006748 0.600000 0.000000 0.300000
0.047349 0.487109 -0.254019 1.000000 0.000000 0.000000
-0.703694 0.220302 0.015654 0.600000 0.300000 0.000000
0.515058 0.299879 0.385635 0.600000 0.300000 0.000000
0.755709 -0.294287 -0.412343 0.300000 0.000000 0.600000
-0.703694 -0.283408 -0.375055 0.600000 0.300000 0.000000
-0.002700 0.003493 0.008971 0.300000 0.600000 0.000000
-0.683146 0.211155 0.254565 0.300000 0.000000 0.600000
-0.703694 -0.520701 -0.039321 0.600000 0.300000 0.000000
-0.442865 0.487109 -0.381924 1.000000 0.000000 0.000000
-0.084945 -0.477632 -0.353997 0.000000 0.000000 1.000000
-0.703694 -0.359052 0.152120 0.600000 0.300000 0.000000
0.096937 -0.094877 -0.055980 0.600000 0.000000 0.300000
-0.775429 0.507096 0.010088 1.000000 0.000000 0.000000
-0.078550 0.522862 0.132694 1.000000 0.000000 0.000000
0.728847 -0.268913 -0.058543 0.300000 0.000000 0.600000
-0.335616 0.522862 -0.274307 1.000000 0.000000 0.000000
0.157227 -0.551547 0.228856 0.600000 0.000000 0.300000
0.755709 0.087272 0.092831 0.300000 0.000000 0.600000
-0.123321 -0.408064 0.013565 1.000000 0.000000 0.000000
0.417542 0.487313 0.234926 0.000000 1.000000 0.000000
0.686236 0.522862 0.053268 1.000000 0.000000 0.000000
0.728847 -0.352321 0.149800 0.300000 0.000000 0.600000
0.439660 -0.068015 -0.359957 0.600000 0.000000 0.300000
-0.629724 0.003493 -0.421059 0.300000 0.600000 0.000000
-0.080496 -0.518739 0.254629 0.600000 0.000000 0.300000
0.300916 0.522862 0.008031 1.000000 0.000000 0.000000
-0.101297 -0.408064 0.170919 1.000000 0.000000 0.000000
-0.200833 0.522862 -0.074769 1.000000 0.000000 0.000000
-0.644413 0.522862 0.122268 1.000000 0.000000 0.000000
-0.278030 0.487109 -0.269349 1.000000 0.000000 0.000000
-0.766359 0.500798 -0.215598 0.000000 0.500000 0.500000
-0.351754 -0.023369 -0.394109 0.300000 0.600000 0.000000
0.728847 -0.505464 0.210954 0.300000 0.000000 0.600000
0.496411 -0.381202 -0.344855 1.000000 0.000000 0.000000
-0.479416 0.522862 0.184739 1.000000 0.000000 0.000000
0.773399 -0.469299 -0.171931 0.800000 0.200000 0.500000
0.696908 0.487109 -0.013159 1.000000 0.000000 0.000000
-0.730556 0.156050 0.055981 0.600000 0.300000 0.000000
-0.635759 -0.023369 -0.051557 0.300000 0.600000 0.000000
0.755709 -0.383482 0.245166 0.300000 0.000000 0.600000
0.235299 -0.509620 -0.353997 0.000000 0.000000 1.000000
-0.161284 0.513679 0.299354 1.000000 0.000000 0.000000
0.224308 -0.408064 0.078399 1.000000 0.000000 0.000000
-0.133849 0.504954 -0.131768 1.000000 0.000000 0.000000
-0.450186 0.454291 0.227937 0.000000 1.000000 0.000000
0.499214 0.153801 0.397531 0.600000 0.300000 0.000000
-0.388742 0.487109 0.145375 1.000000 0.000000 0.000000
0.016223 0.157042 0.227737 0.500000 0.500000 0.000000
0.348136 0.487109 -0.039685 1.000000 0.000000 0.000000
-0.694925 0.487109 -0.228302 1.000000 0.000000 0.000000
-0.664052 0.487109 -0.413848 1.000000 0.000000 0.000000
-0.625297 0.522862 -0.057491 1.000000 0.000000 0.000000
0.728847 -0.440557 -0.315813 0.300000 0.000000 0.600000
-0.703694 -0.385638 -0.174412 0.600000 0.300000 0.000000
0.512572 -0.381202 0.101990 1.000000 0.000000 0.000000
-0.703694 -0.330328 -0.121296 0.600000 0.300000 0.000000
0.728847 0.115046 -0.308425 0.300000 0.000000 0.600000
0.015634 0.378467 -0.434780 0.500000 0.000000 0.500000
0.381531 -0.165967 0.491490 0.600000 0.300000 0.000000
0.728847 -0.530054 0.153911 0.300000 0.000000 0.600000
-0.379209 -0.408064 0.041987 1.000000 0.000000 0.000000
-0.751391 0.522862 -0.328146 1.000000 0.000000 0.000000
-0.121003 0.522862 -0.272423 1.000000 0.000000 0.000000
0.700675 -0.215333 0.274263 0.600000 0.000000 0.300000
-0.106332 0.062465 0.236657 0.800000 0.200000 0.500000
-0.614544 -0.413280 0.254658 0.600000 0.000000 0.300000
-0.730556 0.020455 -0.366766 0.600000 0.300000 0.000000
-0.140008 0.522862 -0.017904 1.000000 0.000000 0.000000
-0.136340 0.504954 0.258252 1.000000 0.000000 0.000000
-0.703694 0.357867 -0.009883 0.600000 0.300000 0.000000
-0.730556 -0.243510 0.110098 0.600000 0.300000 0.000000
0.627127 0.429673 0.254799 0.000000 1.000000 0.000000
0.728847 0.263781 0.174849 0.300000 0.000000 0.600000
0.628423 -0.484293 0.274076 0.600000 0.000000 0.300000
-0.025417 0.522862 -0.261264 1.000000 0.000000 0.000000
0.414508 -0.381202 -0.322098 1.000000 0.000000 0.000000
0.360624 0.335442 0.507187 0.600000 0.300000 0.000000
0.345771 0.487109 0.074897 1.000000 0.000000 0.000000
0.745748 0.345290 0.254648 0.300000 0.000000 0.600000
-0.388645 -0.447866 -0.353997 0.000000 0.000000 1.000000
0.616233 0.487109 -0.146633 1.000000 0.000000 0.000000
-0.703694 -0.376167 0.003982 0.600000 0.300000 0.000000
-0.124736 0.144996 0.232180 0.800000 0.200000 0.500000
0.755709 0.149849 0.124038 0.300000 0.000000 0.600000
0.432297 0.522862 0.035713 1.000000 0.000000 0.000000
0.691707 -0.549133 0.272537 0.600000 0.000000 0.300000
-0.730556 0.266178 0.074631 0.600000 0.300000 0.000000
0.022918 -0.381202 0.207324 1.000000 0.000000 0.000000
0.020827 0.294826 -0.434780 0.500000 0.000000 0.500000
0.160789 -0.381202 0.055124 1.000000 0.000000 0.000000
0.302696 0.487109 -0.323877 1.000000 0.000000 0.000000
0.702011 0.297642 0.273260 0.600000 0.000000 0.300000
-0.748577 -0.531209 -0.225201 0.300000 0.000000 0.600000
0.408514 -0.540230 0.227796 0.600000 0.000000 0.300000
0.388195 -0.076981 0.480887 0.600000 0.300000 0.000000
0.010280 -0.171153 0.252841 0.300000 0.000000 0.600000
0.101764 -0.068015 -0.200614 0.600000 0.000000 0.300000
0.208778 -0.504435 0.227796 0.600000 0.000000 0.300000
-0.730556 -0.124519 -0.106959 0.600000 0.300000 0.000000
-0.425270 -0.307275 0.236657 0.800000 0.200000 0.500000
0.768051 -0.551547 -0.280644 0.800000 0.200000 0.500000
-0.737116 0.479656 -0.341129 0.000000 0.500000 0.500000
-0.377938 0.115994 0.232180 0.800000 0.200000 0.500000
0.755709 -0.298188 -0.176144 0.300000 0.000000 0.600000
-0.730556 -0.374527 -0.121005 0.600000 0.300000 0.000000
0.249309 -0.408064 -0.329548 1.000000 0.000000 0.000000
0.513249 -0.013125 0.392593 0.600000 0.300000 0.000000
-0.526716 -0.113295 0.236657 0.800000 0.200000 0.500000
-0.730556 -0.246663 0.226317 0.600000 0.300000 0.000000
-0.730556 -0.289741 -0.024549 0.600000 0.300000 0.000000
0.174374 0.487109 -0.352281 1.000000 0.000000 0.000000
0.732837 -0.076800 -0.461671 0.300000 0.000000 0.600000
-0.043206 -0.381202 -0.308744 1.000000 0.000000 0.000000
-0.730556 -0.216328 0.175078 0.600000 0.300000 0.000000
-0.480388 -0.023369 -0.205854 0.300000 0.600000 0.000000
0.742670 0.411560 0.254648 0.300000 0.000000 0.600000
0.298828 0.522862 -0.119147 1.000000 0.000000 0.000000
-0.145384 -0.532799 0.272537 0.600000 0.000000 0.300000
0.575670 0.522862 -0.305595 1.000000 0.000000 0.000000
0.299741 -0.068015 -0.256252 0.600000 0.000000 0.300000
-0.317965 0.496571 0.275632 0.500000 0.000000 0.500000
0.663208 -0.408064 -0.074015 1.000000 0.000000 0.000000
-0.050489 -0.381202 -0.419885 1.000000 0.000000 0.000000
-0.049731 0.118176 0.227703 0.300000 0.000000 0.600000
0.446741 -0.094877 -0.250061 0.600000 0.000000 0.300000
-0.492880 -0.381202 0.135268 1.000000 0.000000 0.000000
0.479030 0.522862 -0.230655 1.000000 0.000000 0.000000
0.459852 0.487109 -0.372109 1.000000 0.000000 0.000000
0.018788 0.070014 -0.461642 0.500000 0.000000 0.500000
-0.486846 0.003493 0.144699 0.300000 0.600000 0.000000
0.755709 -0.291357 -0.133459 0.300000 0.000000 0.600000
-0.439198 0.351847 0.227703 0.300000 0.000000 0.600000
-0.303901 -0.023369 -0.100716 0.300000 0.600000 0.000000
0.509324 0.522862 -0.191507 1.000000 0.000000 0.000000
0.728847 -0.334728 -0.065343 0.300000 0.000000 0.600000
-0.585991 0.487109 -0.215518 1.000000 0.000000 0.000000
0.738519 0.504954 -0.378122 1.000000 0.000000 0.000000
-0.236462 -0.173030 0.236657 0.800000 0.200000 0.500000
0.281892 -0.338329 0.588694 0.600000 0.000000 0.300000
0.728847 0.414989 -0.212853 0.300000 0.000000 0.600000
0.275019 0.522862 0.053746 1.000000 0.000000 0.000000
-0.703694 0.447342 -0.400913 0.600000 0.300000 0.000000
0.342490 -0.143029 0.520802 0.600000 0.300000 0.000000
-0.324711 -0.023369 -0.306277 0.300000 0.600000 0.000000
0.055766 -0.408064 -0.434331 1.000000 0.000000 0.000000
-0.703694 0.262837 -0.411914 0.600000 0.300000 0.000000
0.516273 -0.408064 -0.440067 1.000000 0.000000 0.000000
-0.120755 0.522862 -0.223273 1.000000 0.000000 0.000000
0.245145 -0.381202 0.226841 1.000000 0.000000 0.000000
-0.703694 0.047167 -0.308056 0.600000 0.300000 0.000000
0.755709 0.095811 -0.401646 0.300000 0.000000 0.600000
-0.132511 -0.023369 0.102804 0.300000 0.600000 0.000000
-0.703694 0.335735 0.143086 0.600000 0.300000 0.000000
-0.703694 0.187926 -0.259365 0.600000 0.300000 0.000000
0.613430 -0.408064 -0.047999 1.000000 0.000000 0.000000
-0.046414 -0.408064 0.019310 1.000000 0.000000 0.000000
0.072455 0.487109 0.171058 1.000000 0.000000 0.000000
0.178593 0.065096 0.632663 0.600000 0.000000 0.300000
0.755709 0.366421 0.050801 0.300000 0.000000 0.600000
0.728847 0.316791 -0.181580 0.300000 0.000000 0.600000
0.057458 -0.094877 -0.119521 0.600000 0.000000 0.300000
-0.730556 -0.000955 -0.116655 0.600000 0.300000 0.000000
0.041087 -0.408064 0.058288 1.000000 0.000000 0.000000
0.034841 -0.408064 -0.137271 1.000000 0.000000 0.000000
0.385091 0.504954 0.297119 1.000000 0.000000 0.000000
0.726257 0.522862 0.172227 1.000000 0.000000 0.000000
0.012704 0.511070 0.299354 1.000000 0.000000 0.000000
-0.703694 -0.405918 0.091218 0.600000 0.300000 0.000000
0.348571 -0.068015 -0.216005 0.600000 0.000000 0.300000
0.428180 0.522862 -0.046185 1.000000 0.000000 0.000000
-0.089244 0.522862 0.268693 1.000000 0.000000 0.000000
-0.188187 0.504954 -0.353600 1.000000 0.000000 0.000000
-0.672885 0.522862 0.252888 1.000000 0.000000 0.000000
0.615501 0.487109 -0.030283 1.000000 0.000000 0.000000
-0.729628 0.270405 0.254659 0.600000 0.300000 0.000000
0.008266 -0.001225 -0.241474 0.300000 0.600000 0.000000
-0.519196 -0.381202 -0.133866 1.000000 0.000000 0.000000
0.144382 -0.084350 -0.432799 0.600000 0.000000 0.300000
0.006507 0.003493 -0.313989 0.300000 0.600000 0.000000
-0.638884 -0.165457 0.232742 0.800000 0.200000 0.500000
-0.482090 -0.551557 0.261895 0.600000 0.000000 0.300000
-0.345529 -0.381202 -0.001743 1.000000 0.000000 0.000000
0.728847 0.221077 -0.187663 0.300000 0.000000 0.600000
-0.444948 -0.545119 -0.353997 0.000000 0.000000 1.000000
-0.426661 0.522862 -0.222138 1.000000 0.000000 0.000000
0.271677 0.522862 -0.271637 1.000000 0.000000 0.000000
0.762800 0.493882 0.261712 0.500000 0.500000 0.000000
-0.235322 0.003493 0.031534 0.300000 0.600000 0.000000
-0.003721 0.522862 -0.080780 1.000000 0.000000 0.000000
0.755709 -0.237283 0.149423 0.300000 0.000000 0.600000
-0.703694 0.369991 -0.168623 0.600000 0.300000 0.000000
-0.117910 0.487109 0.182407 1.000000 0.000000 0.000000
-0.748577 -0.445716 -0.130735 0.300000 0.000000 0.600000
0.132429 -0.381202 -0.191144 1.000000 0.000000 0.000000
0.755709 0.145551 -0.171240 0.300000 0.000000 0.600000
0.063821 0.487109 -0.112956 1.000000 0.000000 0.000000
-0.641220 0.487109 0.057412 1.000000 0.000000 0.000000
0.664665 0.380213 0.267709 0.600000 0.000000 0.300000
0.038662 0.522862 -0.414808 1.000000 0.000000 0.000000
0.653149 0.504954 0.285406 1.000000 0.000000 0.000000
0.284260 -0.381202 -0.096298 1.000000 0.000000 0.000000
-0.426830 -0.381202 -0.161571 1.000000 0.000000 0.000000
-0.568203 -0.023369 -0.075229 0.300000 0.600000 0.000000
0.573805 -0.008590 0.341527 0.600000 0.300000 0.000000
-0.703694 -0.313921 -0.195616 0.600000 0.300000 0.000000
0.290610 0.100176 0.554155 0.600000 0.300000 0.000000
0.398336 0.522862 -0.221913 1.000000 0.000000 0.000000
0.660110 0.269941 0.282326 0.600000 0.300000 0.000000
0.171051 0.504954 -0.028843 1.000000 0.000000 0.000000
-0.562647 -0.039281 0.232180 0.800000 0.200000 0.500000
0.162141 -0.102784 0.645015 0.600000 0.000000 0.300000
0.765334 0.485854 -0.404265 0.500000 0.500000 0.000000
-0.407195 0.522862 -0.295896 1.000000 0.000000 0.000000
-0.198719 -0.023369 0.067169 0.300000 0.600000 0.000000
-0.007779 -0.098692 0.227737 0.500000 0.500000 0.000000
-0.138102 0.469154 0.227937 0.000000 1.000000 0.000000
0.230541 -0.094877 -0.034844 0.600000 0.000000 0.300000
0.615431 -0.408064 0.092617 1.000000 0.000000 0.000000
-0.703694 0.087032 0.074049 0.600000 0.300000 0.000000
0.762303 0.479737 -0.132108 0.500000 0.500000 0.000000
0.433548 0.359470 0.474827 0.600000 0.000000 0.300000
-0.528504 0.487109 -0.353756 1.000000 0.000000 0.000000
-0.588788 0.328820 0.236657 0.800000 0.200000 0.500000
-0.652702 -0.408064 0.020933 1.000000 0.000000 0.000000
-0.730556 0.094686 -0.390554 0.600000 0.300000 0.000000
0.728847 -0.049681 -0.165820 0.300000 0.000000 0.600000
-0.304090 -0.381202 -0.170731 1.000000 0.000000 0.000000
0.640546 -0.269062 0.291416 0.600000 0.300000 0.000000
-0.050878 0.522862 -0.171304 1.000000 0.000000 0.000000
0.199729 0.413172 0.634262 0.600000 0.000000 0.300000
0.066423 -0.408064 -0.213758 1.000000 0.000000 0.000000
0.755709 -0.213891 0.060460 0.300000 0.000000 0.600000
-0.181587 -0.416212 -0.353997 0.000000 0.000000 1.000000
0.081129 0.522862 -0.054005 1.000000 0.000000 0.000000
0.001766 -0.381202 -0.436726 1.000000 0.000000 0.000000
-0.703694 0.058155 -0.115881 0.600000 0.300000 0.000000
-0.406055 0.443597 0.227937 0.000000 1.000000 0.000000
0.154702 0.504954 0.092218 1.000000 0.000000 0.000000
-0.315505 -0.448626 0.272537 0.600000 0.000000 0.300000
0.296700 0.487109 0.104793 1.000000 0.000000 0.000000
0.728847 -0.298613 -0.264529 0.300000 0.000000 0.600000
0.218226 0.487109 -0.282759 1.000000 0.000000 0.000000
0.169711 0.522862 -0.282902 1.000000 0.000000 0.000000
-0.223190 -0.381202 -0.242646 1.000000 0.000000 0.000000
0.498052 0.487109 -0.092395 1.000000 0.000000 0.000000
0.135319 0.516101 -0.461736 1.000000 0.000000 0.000000
0.531378 0.522862 -0.426194 1.000000 0.000000 0.000000
0.728847 -0.259878 -0.310171 0.300000 0.000000 0.600000
0.728847 0.367217 -0.385057 0.300000 0.000000 0.600000
-0.621191 0.177072 0.236657 0.800000 0.200000 0.500000
0.531710 0.487109 -0.205868 1.000000 0.000000 0.000000
0.213216 -0.381202 0.007802 1.000000 0.000000 0.000000
-0.343056 0.522862 0.207410 1.000000 0.000000 0.000000
0.228256 0.419202 0.254799 0.000000 1.000000 0.000000
-0.285421 0.487109 -0.003047 1.000000 0.000000 0.000000
0.755709 -0.146642 -0.377463 0.300000 0.000000 0.600000
-0.260651 -0.408064 0.157596 1.000000 0.000000 0.000000
-0.581602 0.522862 0.005675 1.000000 0.000000 0.000000
0.728847 0.333594 -0.014404 0.300000 0.000000 0.600000
-0.553358 0.003493 -0.254634 0.300000 0.600000 0.000000
0.704592 -0.432990 -0.084239 0.600000 0.000000 0.300000
-0.305613 0.210348 0.232180 0.800000 0.200000 0.500000
0.728847 -0.000346 -0.141526 0.300000 0.000000 0.600000
0.631751 -0.381202 0.059479 1.000000 0.000000 0.000000
0.739091 -0.215810 0.254648 0.300000 0.000000 0.600000
0.583294 -0.068015 -0.043939 0.600000 0.000000 0.300000
-0.542623 0.504256 0.290510 0.500000 0.000000 0.500000
-0.703694 -0.518287 -0.197257 0.600000 0.300000 0.000000
0.634897 -0.379256 0.319440 0.600000 0.000000 0.300000
0.728847 0.139930 -0.222987 0.300000 0.000000 0.600000
0.199039 -0.408064 0.150463 1.000000 0.000000 0.000000
0.330379 0.487109 -0.402087 1.000000 0.000000 0.000000
-0.446062 -0.381202 0.180241 1.000000 0.000000 0.000000
-0.498714 -0.267970 0.232180 0.800000 0.200000 0.500000
0.755709 -0.027268 -0.065503 0.300000 0.000000 0.600000
-0.730556 0.426683 -0.083094 0.600000 0.300000 0.000000
-0.364021 0.003493 0.061569 0.300000 0.600000 0.000000
-0.260948 0.505017 0.074980 1.000000 0.000000 0.000000
-0.322348 0.522862 -0.445976 1.000000 0.000000 0.000000
-0.284443 0.003493 0.017500 0.300000 0.600000 0.000000
-0.730556 0.363837 -0.328542 0.600000 0.300000 0.000000
0.773399 -0.512465 0.245439 0.800000 0.200000 0.500000
0.129260 -0.094877 -0.170775 0.600000 0.000000 0.300000
0.098828 0.522862 0.295446 1.000000 0.000000 0.000000
-0.538209 0.487109 0.220226 1.000000 0.000000 0.000000
-0.387995 0.003493 -0.427429 0.300000 0.600000 0.000000
0.755709 0.218026 -0.103403 0.300000 0.000000 0.600000
-0.617596 -0.023369 -0.238076 0.300000 0.600000 0.000000
-0.630866 -0.381202 -0.395466 1.000000 0.000000 0.000000
0.114869 -0.068015 -0.353643 0.600000 0.000000 0.300000
0.392016 -0.094877 0.066401 0.600000 0.000000 0.300000
-0.423524 0.522862 -0.390127 1.000000 0.000000 0.000000
-0.730556 0.058475 -0.021582 0.600000 0.300000 0.000000
0.728847 0.188375 -0.343263 0.300000 0.000000 0.600000
0.488824 -0.116846 0.410932 0.600000 0.300000 0.000000
-0.365145 -0.408064 -0.108299 1.000000 0.000000 0.000000
0.677608 -0.379256 0.258574 0.600000 0.000000 0.300000
-0.654162 -0.381202 -0.304543 1.000000 0.000000 0.000000
0.755709 -0.154712 0.187016 0.300000 0.000000 0.600000
-0.277672 0.522862 -0.331096 1.000000 0.000000 0.000000
-0.730556 -0.156718 -0.145893 0.600000 0.300000 0.000000
0.365146 0.487109 0.145681 1.000000 0.000000 0.000000
-0.078078 0.487109 -0.006074 1.000000 0.000000 0.000000
0.755709 0.331310 -0.050237 0.300000 0.000000 0.600000
-0.099707 -0.381202 -0.180872 1.000000 0.000000 0.000000
-0.240354 0.487109 -0.126688 1.000000 0.000000 0.000000
-0.157255 0.522862 -0.423615 1.000000 0.000000 0.000000
-0.401605 0.036523 0.232180 0.800000 0.200000 0.500000
-0.763395 0.504954 0.049618 1.000000 0.000000 0.000000
0.773399 -0.532353 -0.030730 0.800000 0.200000 0.500000
0.755709 -0.462025 -0.036600 0.300000 0.000000 0.600000
0.147190 -0.094877 -0.245579 0.600000 0.000000 0.300000
0.657983 -0.319258 0.306317 0.600000 0.000000 0.300000
-0.514783 -0.023369 -0.135160 0.300000 0.600000 0.000000
0.712929 0.505017 -0.086911 1.000000 0.000000 0.000000
0.190101 0.201905 0.657612 0.600000 0.000000 0.300000
0.766286 0.487293 -0.219873 0.500000 0.500000 0.000000
0.725672 0.522862 -0.451508 1.000000 0.000000 0.000000
0.452996 -0.551080 -0.349901 0.000000 0.000000 1.000000
0.728847 0.305650 0.180623 0.300000 0.000000 0.600000
0.186135 0.286378 0.660590 0.600000 0.000000 0.300000
-0.566310 -0.023369 0.020686 0.300000 0.600000 0.000000
0.229906 0.487109 -0.080966 1.000000 0.000000 0.000000
0.728847 -0.318347 0.202423 0.300000 0.000000 0.600000
0.755709 -0.226792 -0.250572 0.300000 0.000000 0.600000
0.701654 -0.420248 -0.177944 0.600000 0.000000 0.300000
-0.310462 0.273046 0.232180 0.800000 0.200000 0.500000
-0.412848 -0.367342 0.227703 0.300000 0.000000 0.600000
0.624267 -0.068015 -0.334911 0.600000 0.000000 0.300000
-0.629930 0.253690 0.251245 0.300000 0.000000 0.600000
-0.062857 0.487109 0.195262 1.000000 0.000000 0.000000
0.520202 -0.408064 0.031031 1.000000 0.000000 0.000000
-0.179378 -0.023369 -0.096186 0.300000 0.600000 0.000000
-0.015514 0.522862 -0.358128 1.000000 0.000000 0.000000
-0.281742 0.075885 0.236657 0.800000 0.200000 0.500000
-0.223044 0.491302 0.268401 0.500000 0.000000 0.500000
-0.148329 -0.367031 0.254565 0.300000 0.000000 0.600000
-0.476984 0.003493 -0.253990 0.300000 0.600000 0.000000
-0.707447 -0.052591 0.254659 0.600000 0.300000 0.000000
0.364351 -0.408064 -0.204963 1.000000 0.000000 0.000000
-0.730556 0.207593 0.066894 0.600000 0.300000 0.000000
-0.703885 -0.401913 -0.245704 1.000000 0.000000 0.000000
0.609455 -0.094877 -0.253918 0.600000 0.000000 0.300000
0.103305 -0.408064 0.005567 1.000000 0.000000 0.000000
-0.730556 0.255967 -0.272233 0.600000 0.300000 0.000000
-0.730556 0.367281 -0.129140 0.600000 0.300000 0.000000
0.057446 0.522862 -0.192920 1.000000 0.000000 0.000000
-0.005028 -0.408064 0.051711 1.000000 0.000000 0.000000
0.319019 -0.068015 0.197623 0.600000 0.000000 0.300000
0.728847 -0.033666 -0.101606 0.300000 0.000000 0.600000
-0.537272 -0.408064 0.055633 1.000000 0.000000 0.000000
-0.737095 -0.426197 -0.052499 0.300000 0.000000 0.600000
0.009470 -0.381202 -0.350728 1.000000 0.000000 0.000000
0.755709 -0.134315 -0.081506 0.300000 0.000000 0.600000
0.685318 0.522862 0.222224 1.000000 0.000000 0.000000
0.432055 -0.381421 0.235766 0.600000 0.000000 0.300000
-0.328998 0.487109 0.059471 1.000000 0.000000 0.000000
0.209493 -0.381202 -0.090125 1.000000 0.000000 0.000000
-0.321397 -0.408064 0.048077 1.000000 0.000000 0.000000
-0.644162 -0.247765 0.227703 0.300000 0.000000 0.600000
0.436935 -0.381202 -0.087168 1.000000 0.000000 0.000000
-0.735270 0.469788 0.144484 0.000000 0.500000 0.500000
0.603256 0.170355 0.319415 0.600000 0.300000 0.000000
0.467641 0.367990 0.449229 0.600000 0.000000 0.300000
0.267202 -0.445003 0.254629 0.600000 0.000000 0.300000
0.728847 -0.405738 -0.061504 0.300000 0.000000 0.600000
0.521486 -0.273369 0.380809 0.600000 0.300000 0.000000
0.737250 0.504954 -0.310725 1.000000 0.000000 0.000000
-0.131498 -0.151834 0.232180 0.800000 0.200000 0.500000
0.755709 -0.205825 0.115443 0.300000 0.000000 0.600000
-0.703694 -0.420526 -0.284470 0.600000 0.300000 0.000000
-0.506833 0.487109 0.102442 1.000000 0.000000 0.000000
0.627277 0.522862 -0.382338 1.000000 0.000000 0.000000
0.053687 0.522862 0.091041 1.000000 0.000000 0.000000
-0.630232 -0.408064 0.135774 1.000000 0.000000 0.000000
0.505062 -0.381202 -0.049729 1.000000 0.000000 0.000000
0.728847 0.018553 0.070850 0.300000 0.000000 0.600000
0.207827 -0.408094 -0.343611 0.000000 0.000000 1.000000
0.164826 -0.480545 -0.327135 0.000000 0.000000 1.000000
0.755709 -0.041056 0.030136 0.300000 0.000000 0.600000
-0.730556 -0.154489 -0.038408 0.600000 0.300000 0.000000
-0.712648 -0.023858 0.165657 0.600000 0.300000 0.000000
0.069468 -0.068015 0.136077 0.600000 0.000000 0.300000
-0.703694 0.345554 -0.218316 0.600000 0.300000 0.000000
0.576947 -0.408064 -0.252066 1.000000 0.000000 0.000000
-0.335219 0.003493 0.189687 0.300000 0.600000 0.000000
-0.263907 -0.399989 -0.461642 1.000000 0.000000 0.000000
0.545541 -0.381202 0.153263 1.000000 0.000000 0.000000
-0.707062 -0.551559 -0.358352 0.600000 0.300000 0.000000
-0.017852 0.176967 0.200875 0.500000 0.500000 0.000000
-0.711923 -0.551559 -0.064822 0.600000 0.300000 0.000000
0.282858 -0.264975 0.559977 0.600000 0.300000 0.000000
0.483137 -0.094877 -0.012482 0.600000 0.000000 0.300000
-0.063244 -0.006895 0.232180 0.800000 0.200000 0.500000
0.752351 -0.551546 -0.113385 0.300000 0.000000 0.600000
-0.391017 -0.381202 0.141036 1.000000 0.000000 0.000000
-0.503615 0.003493 0.190495 0.300000 0.600000 0.000000
0.755709 -0.173668 -0.008965 0.300000 0.000000 0.600000
-0.730556 -0.217187 -0.371736 0.600000 0.300000 0.000000
-0.150574 0.231913 0.236657 0.800000 0.200000 0.500000
0.581265 -0.500255 0.272537 0.600000 0.000000 0.300000
-0.748577 -0.511827 -0.419652 0.300000 0.000000 0.600000
0.629486 -0.068015 -0.393308 0.600000 0.000000 0.300000
0.728847 0.293754 0.062072 0.300000 0.000000 0.600000
-0.543147 0.487109 -0.249131 1.000000 0.000000 0.000000
0.638215 -0.068015 -0.270279 0.600000 0.000000 0.300000
-0.657287 -0.381202 0.221305 1.000000 0.000000 0.000000
0.227202 -0.408064 -0.244787 1.000000 0.000000 0.000000
-0.703694 -0.221209 0.027088 0.600000 0.300000 0.000000
-0.375136 0.522862 0.013997 1.000000 0.000000 0.000000
0.404023 0.487109 -0.389563 1.000000 0.000000 0.000000
0.666522 0.522862 -0.190515 1.000000 0.000000 0.000000
0.724146 -0.451880 0.254629 0.600000 0.000000 0.300000
-0.730556 -0.312038 -0.299578 0.600000 0.300000 0.000000
0.599525 0.522862 0.061796 1.000000 0.000000 0.000000
0.532622 -0.421176 0.227796 0.600000 0.000000 0.300000
-0.017896 0.415681 0.245507 0.000000 1.000000 0.000000
0.135798 0.487109 0.021727 1.000000 0.000000 0.000000
-0.418028 0.373929 0.254565 0.300000 0.000000 0.600000
-0.018190 -0.381202 -0.081186 1.000000 0.000000 0.000000
-0.703694 0.036143 0.126692 0.600000 0.300000 0.000000
-0.129844 0.099837 0.232180 0.800000 0.200000 0.500000
-0.583951 -0.381202 -0.211134 1.000000 0.000000 0.000000
0.192310 -0.094877 -0.161887 0.600000 0.000000 0.300000
-0.116467 -0.239052 0.236657 0.800000 0.200000 0.500000
0.800474 0.521460 -0.412766 1.000000 0.000000 0.000000
0.444528 0.505017 -0.209413 1.000000 0.000000 0.000000
0.378351 -0.068015 -0.401498 0.600000 0.000000 0.300000
-0.128262 0.516260 -0.461736 1.000000 0.000000 0.000000
0.143404 0.377573 0.659083 0.600000 0.000000 0.300000
0.361778 -0.408064 -0.077886 1.000000 0.000000 0.000000
-0.465287 0.522862 -0.366150 1.000000 0.000000 0.000000
-0.280289 0.522862 0.105926 1.000000 0.000000 0.000000
-0.574554 -0.540679 0.272537 0.600000 0.000000 0.300000
0.009418 0.084577 0.200875 0.500000 0.500000 0.000000
-0.229079 0.522862 0.191826 1.000000 0.000000 0.000000
-0.426852 -0.023369 -0.184573 0.300000 0.600000 0.000000
0.755491 -0.454724 0.090213 0.800000 0.200000 0.500000
-0.508690 -0.408064 0.091373 1.000000 0.000000 0.000000
-0.703694 -0.185901 -0.164591 0.600000 0.300000 0.000000
-0.227612 -0.323232 0.227703 0.300000 0.000000 0.600000
0.728847 0.281028 -0.288988 0.300000 0.000000 0.600000
0.349329 0.522862 -0.423237 1.000000 0.000000 0.000000
0.692838 0.118245 0.280147 0.600000 0.000000 0.300000
-0.707025 0.221073 -0.461660 0.600000 0.300000 0.000000
-0.497605 -0.408868 0.227989 0.300000 0.000000 0.600000
0.728847 -0.454937 0.157186 0.300000 0.000000 0.600000
0.704688 -0.381202 -0.198164 1.000000 0.000000 0.000000
0.204494 0.522862 -0.150093 1.000000 0.000000 0.000000
0.021537 0.487109 -0.218700 1.000000 0.000000 0.000000
0.037061 -0.068015 0.044382 0.600000 0.000000 0.300000
-0.035531 -0.023369 -0.216166 0.300000 0.600000 0.000000
0.717600 -0.167095 0.261555 0.600000 0.000000 0.300000
-0.477310 -0.408064 -0.369679 1.000000 0.000000 0.000000
-0.279844 -0.379095 0.246018 0.300000 0.000000 0.600000
-0.198001 -0.408064 -0.063538 1.000000 0.000000 0.000000
-0.547004 0.487109 0.170757 1.000000 0.000000 0.000000
-0.385954 0.487109 -0.439461 1.000000 0.000000 0.000000
-0.013696 0.522862 0.253712 1.000000 0.000000 0.000000
-0.240971 -0.023369 -0.392280 0.300000 0.600000 0.000000
-0.211785 0.522862 -0.285036 1.000000 0.000000 0.000000
0.095331 -0.408064 0.182445 1.000000 0.000000 0.000000
-0.492418 0.487109 0.062726 1.000000 0.000000 0.000000
0.248251 -0.375612 0.613952 0.600000 0.000000 0.300000
-0.553840 -0.326990 0.254565 0.300000 0.000000 0.600000
-0.589360 0.096453 0.236657 0.800000 0.200000 0.500000
0.048316 -0.186049 -0.443010 0.500000 0.000000 0.500000
0.755709 0.358783 -0.303915 0.300000 0.000000 0.600000
0.755709 -0.420879 -0.398867 0.300000 0.000000 0.600000
-0.313398 -0.381202 -0.421654 1.000000 0.000000 0.000000
-0.703694 -0.463585 -0.202843 0.600000 0.300000 0.000000
-0.611478 -0.023369 0.074099 0.300000 0.600000 0.000000
-0.212216 0.514385 -0.461736 1.000000 0.000000 0.000000
-0.638392 0.139782 0.232180 0.800000 0.200000 0.500000
0.169427 -0.094877 -0.402528 0.600000 0.000000 0.300000
0.531574 -0.548019 0.227796 0.600000 0.000000 0.300000
-0.198485 0.003493 0.150168 0.300000 0.600000 0.000000
-0.187519 0.003493 -0.171128 0.300000 0.600000 0.000000
-0.703694 0.189186 -0.129546 0.600000 0.300000 0.000000
-0.062556 -0.023369 -0.096483 0.300000 0.600000 0.000000
0.245287 -0.551547 0.238328 0.600000 0.000000 0.300000
-0.476557 -0.408064 0.060096 1.000000 0.000000 0.000000
-0.703694 -0.339120 0.112934 0.600000 0.300000 0.000000
-0.454318 -0.432872 0.254658 0.600000 0.000000 0.300000
-0.229155 -0.004856 0.200022 0.300000 0.600000 0.000000
-0.748577 -0.503163 0.098254 0.300000 0.000000 0.600000
-0.703694 -0.254316 -0.165520 0.600000 0.300000 0.000000
-0.093911 -0.408064 0.131429 1.000000 0.000000 0.000000
0.306594 -0.339225 0.536556 0.600000 0.000000 0.300000
0.755709 -0.342437 0.097401 0.300000 0.000000 0.600000
0.703896 -0.515297 0.254658 0.600000 0.000000 0.300000
-0.177649 0.003493 -0.364214 0.300000 0.600000 0.000000
0.254730 -0.408064 -0.002688 1.000000 0.000000 0.000000
-0.223632 0.522862 0.019399 1.000000 0.000000 0.000000
-0.525849 0.522862 -0.422751 1.000000 0.000000 0.000000
-0.703694 -0.512665 -0.367636 0.600000 0.300000 0.000000
0.039216 -0.381202 -0.274518 1.000000 0.000000 0.000000
-0.703694 -0.366969 -0.349237 0.600000 0.300000 0.000000
-0.177475 0.522862 0.187623 1.000000 0.000000 0.000000
-0.118592 0.003493 -0.237994 0.300000 0.600000 0.000000
-0.693771 0.487109 -0.136890 1.000000 0.000000 0.000000
-0.463685 -0.381202 -0.206853 1.000000 0.000000 0.000000
-0.016002 0.203989 -0.434780 0.500000 0.000000 0.500000
-0.177502 -0.471025 -0.353997 0.000000 0.000000 1.000000
-0.391183 0.303238 0.232180 0.800000 0.200000 0.500000
0.337869 -0.541584 0.272537 0.600000 0.000000 0.300000
