ply
format ascii 1.0
element vertex 1282
property float x
property float y
property float z
property uchar red
property uchar green
property uchar blue
end_header
0.527685 -0.551080 -0.347273 0 0 255
-0.703694 0.247448 -0.213688 153 76 0
-0.397908 0.003493 -0.048744 76 153 0
0.601268 -0.094877 -0.361284 153 0 76
0.614803 0.522862 -0.460580 255 0 0
-0.618223 0.487109 -0.144526 255 0 0
0.622438 0.487109 0.126664 255 0 0
-0.222104 0.003493 -0.156025 76 153 0
-0.756381 -0.491123 -0.411332 76 0 153
0.048316 0.301312 -0.458077 127 0 127
-0.284316 0.504954 0.124839 255 0 0
0.019400 0.487109 -0.423132 255 0 0
0.025071 -0.408064 0.187384 255 0 0
-0.387458 0.522862 -0.141439 255 0 0
0.208408 -0.502571 0.272537 153 0 76
0.398035 -0.408064 -0.404627 255 0 0
-0.656740 -0.381202 -0.202083 255 0 0
0.623105 -0.408064 0.093315 255 0 0
0.528511 -0.389344 -0.461642 255 0 0
-0.591463 0.145257 0.232180 204 51 127
-0.677019 -0.433385 -0.040523 153 0 76
0.755709 0.371495 0.070255 76 0 153
0.660530 0.487109 -0.331568 255 0 0
0.755709 0.149074 0.026371 76 0 153
-0.610291 0.487109 -0.299470 255 0 0
-0.358574 0.487109 -0.354802 255 0 0
-0.391267 -0.413601 -0.353997 255 0 0
0.388603 0.481501 0.227937 0 255 0
0.048316 -0.021632 -0.457684 127 0 127
0.508497 0.211381 0.390562 153 76 0
-0.720648 -0.280262 0.254659 153 76 0
-0.670966 -0.398263 -0.461642 255 0 0
0.673904 -0.010484 0.260772 153 0 76
0.427318 -0.408064 0.202743 76 0 153
0.474525 -0.379256 0.416870 153 0 76
0.755523 0.102178 0.254648 76 0 153
-0.275886 0.003493 0.174201 76 153 0
-0.730556 0.326914 -0.061996 153 76 0
-0.313812 0.020551 0.236657 76 0 153
0.755709 -0.378879 0.041632 76 0 153
0.684514 -0.094877 -0.334103 153 0 76
-0.730556 0.193576 0.023761 153 76 0
0.728847 0.010676 -0.163897 76 0 153
0.755709 0.017769 0.055338 76 0 153
-0.386043 0.522862 -0.228315 255 0 0
-0.658178 0.003493 0.164182 76 153 0
0.031516 -0.068015 0.033520 153 0 76
-0.572897 -0.408064 0.021191 255 0 0
-0.169890 -0.023369 0.059902 76 153 0
-0.073759 0.522862 -0.200125 255 0 0
0.435837 0.487109 -0.010675 255 0 0
0.755709 -0.254653 -0.219498 76 0 153
-0.750131 -0.493153 0.116904 76 0 153
0.728847 0.308107 -0.393650 76 0 153
0.755709 0.021828 -0.023127 76 0 153
0.706135 0.522862 -0.043577 255 0 0
0.363163 0.521449 -0.461736 255 0 0
-0.448993 0.487109 -0.391096 255 0 0
-0.078356 -0.098847 0.232180 76 0 153
0.128774 -0.548198 -0.327135 0 0 255
0.177807 0.487109 -0.354910 255 0 0
-0.703694 -0.544810 -0.360956 153 76 0
-0.422019 -0.009580 -0.431234 76 153 0
0.755709 -0.050631 -0.381416 76 0 153
-0.531643 -0.434225 0.210204 76 0 153
0.680599 0.229519 0.289336 153 0 76
0.077734 -0.381202 -0.456867 255 0 0
0.672297 -0.068015 0.063791 153 0 76
-0.122559 0.487109 -0.152007 255 0 0
0.146502 0.487109 -0.216899 255 0 0
0.755709 0.220442 -0.060737 76 0 153
0.728847 -0.162212 -0.290586 76 0 153
-0.651173 0.487109 0.052872 255 0 0
-0.147919 -0.439784 -0.353997 0 0 255
-0.730556 0.450400 -0.090824 153 76 0
-0.703694 -0.280638 -0.292137 153 76 0
0.569615 -0.197566 0.344673 153 76 0
-0.486238 -0.068297 0.236657 204 51 127
-0.605449 0.505498 0.299354 127 0 127
-0.703694 -0.065492 -0.390692 153 76 0
-0.012067 -0.285914 0.200875 127 127 0
-0.158887 -0.023369 0.174945 76 153 0
0.126444 0.487313 0.236322 0 255 0
-0.550412 -0.023369 -0.039523 76 153 0
0.404652 0.186142 0.468531 153 76 0
0.679328 -0.366369 0.256700 153 0 76
0.728847 0.338259 -0.260378 76 0 153
-0.489361 0.003493 -0.353762 76 153 0
-0.775429 0.514196 0.031474 255 0 0
-0.061481 -0.023369 0.046480 76 153 0
-0.520496 -0.023369 0.127730 76 153 0
-0.280243 -0.115396 0.236657 204 51 127
0.662417 -0.481050 -0.353997 0 0 255
0.460714 -0.068015 -0.258726 153 0 76
0.249640 -0.408064 0.100800 255 0 0
0.728847 -0.296638 0.097837 76 0 153
0.373182 0.487109 0.078975 255 0 0
0.275343 -0.381202 0.003740 255 0 0
-0.017916 0.077147 0.200875 127 127 0
0.728847 0.000948 0.171774 76 0 153
-0.703885 -0.402226 0.033281 255 0 0
0.578948 0.522862 -0.041242 255 0 0
-0.182811 0.487109 -0.267918 255 0 0
0.003951 -0.484293 0.275679 153 0 76
0.152378 -0.381202 0.188995 255 0 0
-0.164871 0.522862 -0.041865 255 0 0
0.728847 0.152815 -0.042390 76 0 153
-0.650915 0.280811 0.227703 204 51 127
-0.704295 -0.551559 -0.150215 153 76 0
0.728847 -0.156570 -0.391184 76 0 153
-0.276943 -0.381202 -0.313120 255 0 0
0.049922 -0.408064 0.096957 255 0 0
0.491133 0.413172 0.422673 153 0 76
-0.566485 0.003493 -0.173101 76 153 0
0.144899 0.522862 0.043430 255 0 0
0.721998 -0.381202 -0.353195 76 0 153
-0.661321 -0.541700 0.227796 153 0 76
-0.551776 0.463409 0.254799 127 0 127
-0.703694 0.217750 0.202194 153 76 0
0.013956 -0.550683 -0.327135 0 0 255
-0.730556 -0.269698 -0.033978 153 76 0
-0.581159 -0.408064 -0.068480 255 0 0
0.264469 -0.224944 0.579381 153 76 0
-0.433486 0.003493 -0.194521 76 153 0
-0.730556 -0.048981 0.113147 153 76 0
0.643498 -0.408064 0.018497 255 0 0
0.048316 0.051337 -0.444750 127 0 127
0.497697 0.522862 -0.415327 255 0 0
0.008266 -0.020623 -0.159687 76 153 0
-0.730556 -0.045639 -0.036844 153 76 0
-0.518608 0.327452 0.232180 204 51 127
0.602520 -0.068015 -0.006973 153 0 76
-0.416505 -0.017049 0.200022 76 153 0
0.228143 -0.094877 0.026282 153 0 76
0.012091 -0.412047 -0.327135 0 0 255
0.310623 0.270945 0.539130 153 76 0
-0.514492 0.504954 -0.216340 255 0 0
-0.724712 0.417812 -0.461660 153 76 0
0.504745 -0.381202 -0.015299 255 0 0
-0.013693 0.254560 -0.434780 127 0 127
-0.023316 -0.247303 -0.438600 127 0 127
0.147997 -0.013021 0.669392 153 0 76
-0.524390 -0.491938 -0.327135 0 0 255
0.240206 0.487109 -0.160825 255 0 0
-0.143684 -0.402749 -0.461642 255 0 0
-0.255330 -0.408064 -0.035120 255 0 0
-0.730556 0.350092 -0.392390 153 76 0
-0.345936 -0.408064 -0.279876 255 0 0
0.728847 0.388008 -0.313963 76 0 153
0.005132 0.522862 0.237371 255 0 0
0.473403 0.464383 0.254799 127 0 127
0.755709 -0.263090 0.153797 76 0 153
-0.192952 0.522862 0.043489 255 0 0
-0.703694 -0.200611 -0.395013 153 76 0
0.374713 -0.381202 0.122322 255 0 0
0.755709 0.461832 -0.010396 127 127 0
-0.642437 -0.403333 0.254658 153 0 76
-0.028502 -0.350359 0.227703 76 0 153
-0.703694 0.278812 -0.456240 153 76 0
0.007518 -0.023369 0.145422 76 153 0
0.773399 -0.472570 -0.116587 204 51 127
0.091315 0.522862 -0.059122 255 0 0
0.524618 0.522862 0.171963 255 0 0
-0.730556 0.175944 -0.229789 153 76 0
-0.324179 -0.385406 0.254658 153 0 76
-0.703694 -0.064064 -0.103062 153 76 0
-0.572112 0.003493 0.076128 76 153 0
0.425694 -0.068015 -0.142825 153 0 76
0.312762 -0.094877 0.059004 153 0 76
0.100344 -0.541682 0.227796 153 0 76
0.302426 0.487109 -0.055727 255 0 0
0.603734 0.421905 0.254799 0 255 0
-0.020256 0.052403 -0.461642 127 0 127
-0.357413 0.500113 0.288013 127 0 127
-0.659985 0.046633 0.254565 76 0 153
-0.020851 0.222464 0.200875 127 127 0
-0.132284 -0.381202 -0.314470 255 0 0
0.523296 -0.408064 0.078976 255 0 0
0.574560 -0.352047 0.335362 153 0 76
0.041908 0.487109 -0.269099 255 0 0
-0.372403 0.378744 0.227703 76 0 153
-0.323929 -0.495219 -0.327135 0 0 255
-0.578987 -0.408064 -0.401304 255 0 0
-0.054312 -0.408064 0.179622 255 0 0
-0.680877 0.003493 -0.383063 153 76 0
0.263163 0.487109 0.031733 255 0 0
-0.730556 -0.338559 -0.133911 153 76 0
-0.179643 0.003493 -0.017470 76 153 0
0.718440 -0.452736 -0.327135 0 0 255
-0.310301 -0.381202 0.078101 255 0 0
0.541074 0.522862 -0.159226 255 0 0
-0.683015 -0.472674 -0.327135 0 0 255
-0.406037 0.317150 0.232180 204 51 127
0.728847 -0.397699 0.168675 76 0 153
-0.679374 0.522862 -0.391671 255 0 0
0.486581 -0.089363 -0.432799 153 0 76
0.727181 0.522862 -0.306629 255 0 0
-0.283319 -0.023369 -0.412834 76 153 0
-0.421683 0.188161 0.232180 204 51 127
0.345498 0.487109 -0.164600 255 0 0
0.207688 -0.323816 0.644408 153 0 76
-0.023214 0.387948 0.203089 127 127 0
0.062982 -0.426202 0.258244 153 0 76
-0.122370 -0.316241 0.232180 76 0 153
-0.580035 -0.484063 0.227796 153 0 76
0.749305 0.181012 -0.461671 76 0 153
-0.105197 -0.248931 0.232180 204 51 127
-0.703694 -0.196564 -0.195758 153 76 0
0.177671 -0.381202 -0.321194 255 0 0
-0.668923 -0.023369 0.018769 76 153 0
-0.558809 0.003493 -0.426411 76 153 0
-0.316060 0.487109 0.219389 255 0 0
-0.104039 0.504954 0.268829 127 0 127
0.155090 -0.296260 0.678839 153 0 76
0.500787 0.487109 -0.282796 255 0 0
-0.516629 -0.331052 0.227703 76 0 153
-0.691704 -0.023369 -0.221405 153 76 0
-0.579974 0.487109 -0.227061 255 0 0
0.661326 0.353850 0.270217 153 0 76
-0.703694 -0.261074 0.171185 153 76 0
0.180726 -0.068015 -0.093262 153 0 76
0.728847 -0.182656 -0.071470 76 0 153
-0.730556 0.123279 0.194212 153 76 0
-0.703694 -0.303655 -0.392436 153 76 0
-0.730556 0.416053 0.099872 153 76 0
-0.571880 -0.408064 0.105827 255 0 0
-0.412059 0.447075 0.227937 0 255 0
-0.219338 -0.550960 -0.327135 0 0 255
0.378848 -0.394880 0.254658 153 0 76
-0.125454 -0.543103 -0.353997 0 0 255
0.267044 -0.442384 0.201844 76 0 153
-0.730543 0.472050 0.192823 0 127 127
0.390702 -0.317745 0.473406 153 0 76
-0.441501 -0.381202 -0.059245 255 0 0
0.650534 0.487109 -0.195270 255 0 0
-0.367538 -0.508005 0.272537 153 0 76
-0.564661 -0.023369 -0.240481 76 153 0
0.251006 -0.094877 -0.041800 153 0 76
-0.687748 -0.435645 -0.115940 153 0 76
-0.008786 0.346955 0.254565 76 0 153
-0.730556 0.384017 -0.270360 153 76 0
0.416363 0.487109 -0.387462 255 0 0
0.755709 0.231237 -0.270827 76 0 153
-0.022628 -0.030296 -0.461642 127 0 127
0.445957 -0.431636 -0.300191 153 76 0
0.600021 -0.497700 0.227796 153 0 76
-0.565676 0.522862 -0.022361 255 0 0
0.728847 0.162608 0.247238 76 0 153
0.646548 0.502362 0.254639 255 0 0
0.259512 0.487109 -0.243302 255 0 0
0.755491 -0.477378 0.211358 76 0 153
0.474798 -0.014056 0.421463 153 76 0
0.773399 -0.550131 -0.395085 204 51 127
0.125332 -0.444226 0.272537 153 0 76
0.575689 0.487109 -0.342691 255 0 0
-0.485662 0.487109 -0.139619 255 0 0
0.755709 0.306196 -0.459193 76 0 153
0.329993 0.056119 0.530185 153 76 0
-0.393546 0.522862 0.124969 255 0 0
0.686808 -0.142817 0.251084 153 0 76
-0.730556 -0.379159 -0.421563 153 76 0
-0.369973 -0.322023 0.254565 76 0 153
0.213662 0.487109 0.135820 255 0 0
0.256202 0.415681 0.250632 0 255 0
-0.244792 -0.408064 -0.260773 255 0 0
-0.348494 -0.432637 0.201127 76 0 153
0.146070 0.487109 -0.456236 255 0 0
0.739529 0.522862 -0.100680 255 0 0
0.158227 0.522862 -0.072819 255 0 0
0.543396 -0.094877 0.045377 153 0 76
0.177907 0.522862 -0.147559 255 0 0
-0.236131 -0.381202 0.163038 255 0 0
0.398431 0.522862 -0.211646 255 0 0
-0.667831 -0.460582 0.227796 153 0 76
-0.279496 0.487109 -0.073860 255 0 0
0.058795 0.522862 -0.383282 255 0 0
-0.566464 0.522862 -0.339266 255 0 0
0.439671 0.309042 0.447837 153 76 0
0.375408 -0.408064 -0.106234 255 0 0
-0.392837 0.003493 0.086286 76 153 0
0.251036 0.522862 -0.412526 255 0 0
-0.020576 0.155653 0.200875 127 127 0
0.773399 -0.508096 0.026398 204 51 127
0.450236 -0.235328 0.439904 153 76 0
-0.000709 0.256891 0.254565 76 0 153
0.755709 0.117059 -0.134728 76 0 153
0.728847 0.366159 -0.065157 76 0 153
-0.730544 0.522862 0.249241 127 0 127
-0.730556 -0.407655 0.213628 153 76 0
-0.703694 0.323107 0.003201 153 76 0
0.161399 -0.068015 -0.372134 153 0 76
0.107729 -0.068015 0.121918 153 0 76
-0.703694 -0.357455 -0.295611 153 76 0
-0.730556 0.355045 0.131500 153 76 0
-0.477862 -0.254848 0.236657 204 51 127
0.359094 0.155001 0.508335 153 76 0
-0.166555 -0.381202 -0.098164 255 0 0
-0.087917 -0.408064 -0.194592 255 0 0
-0.016511 0.469805 0.200875 127 127 0
0.003140 0.003910 0.254565 76 0 153
-0.730556 0.213264 -0.352823 153 76 0
0.610786 0.487109 -0.280125 255 0 0
-0.148538 0.487109 0.094245 255 0 0
0.755709 -0.399515 -0.055440 76 0 153
0.304983 -0.381202 0.154682 255 0 0
-0.703694 0.462047 -0.022123 153 76 0
-0.730556 0.149867 -0.309579 153 76 0
-0.084375 0.522862 0.016936 255 0 0
-0.355673 -0.551080 -0.332338 0 0 255
-0.073335 -0.030504 0.232180 204 51 127
-0.663819 -0.381202 -0.400008 255 0 0
-0.333694 0.003493 -0.118084 76 153 0
-0.025904 0.522862 -0.076890 255 0 0
0.755709 0.466331 0.131761 76 0 153
0.305173 0.487109 0.166674 255 0 0
0.206953 -0.115594 0.644960 153 0 76
-0.308757 0.522862 -0.322472 255 0 0
0.568591 -0.381202 -0.307117 255 0 0
-0.458422 -0.381202 0.029402 255 0 0
0.122796 -0.381202 0.079115 255 0 0
0.675990 -0.551080 -0.328728 0 0 255
0.423081 0.006973 0.454694 153 76 0
0.755709 0.114428 -0.230745 76 0 153
0.551560 -0.408064 0.195271 255 0 0
-0.568060 0.003493 -0.353465 76 153 0
-0.730556 0.034317 -0.138871 153 76 0
-0.145376 -0.408064 0.021614 255 0 0
-0.740331 -0.426290 -0.336384 76 0 153
0.302604 -0.408064 -0.423634 255 0 0
0.728847 -0.476227 -0.253881 76 0 153
0.103951 -0.408064 -0.238115 255 0 0
-0.597286 0.003493 0.199038 76 153 0
0.668006 -0.094877 0.196768 153 0 76
-0.657930 0.522862 0.109746 255 0 0
-0.668619 0.472603 0.259632 0 255 0
0.008266 -0.000133 -0.097428 76 153 0
-0.711176 0.479974 -0.461660 255 0 0
0.024046 0.415681 0.235403 0 255 0
-0.384947 -0.408064 -0.070419 255 0 0
-0.730556 -0.077498 -0.331710 153 76 0
0.772097 0.522862 -0.177720 255 0 0
-0.730556 -0.155647 -0.438896 153 76 0
-0.730556 -0.079697 0.186405 153 76 0
-0.703694 0.163072 0.087976 153 76 0
0.728847 0.056601 -0.116492 76 0 153
0.084726 -0.443143 -0.327135 0 0 255
0.303974 -0.068015 -0.073706 153 0 76
0.213861 -0.094877 -0.314123 153 0 76
-0.703694 0.397328 -0.116782 153 76 0
-0.048424 -0.023369 0.108334 76 153 0
-0.167428 0.003493 -0.085847 76 153 0
0.645933 -0.068015 -0.236386 153 0 76
0.362049 -0.503446 -0.327135 0 0 255
0.755709 0.251166 -0.388685 76 0 153
-0.730556 0.297219 0.087420 153 76 0
-0.608317 -0.381202 0.157449 255 0 0
0.728847 -0.495705 0.133819 76 0 153
-0.016942 0.118059 0.254565 76 0 153
-0.160317 -0.362616 0.254565 76 0 153
0.728847 -0.307395 0.198697 76 0 153
-0.336746 0.119722 0.245611 204 51 127
-0.730556 0.160715 -0.113494 153 76 0
-0.104706 -0.408064 -0.400893 255 0 0
0.755709 -0.405344 0.098843 76 0 153
-0.471480 -0.489156 0.227796 153 0 76
0.299616 0.191279 0.547394 153 76 0
-0.061352 0.273966 0.251064 76 0 153
0.728847 0.265894 0.154062 76 0 153
-0.168139 0.003493 -0.379071 76 153 0
0.095857 -0.094877 0.054379 153 0 76
0.203747 0.522862 0.016591 255 0 0
0.755709 -0.355894 -0.306566 76 0 153
0.728847 -0.338137 -0.119025 76 0 153
0.220534 0.171428 0.606770 153 76 0
-0.703694 -0.478113 0.159861 153 76 0
0.728847 -0.322276 -0.424835 76 0 153
0.569878 0.522862 0.099654 255 0 0
0.469455 -0.492213 0.279860 153 0 76
0.529640 -0.102188 0.374687 153 76 0
-0.730556 0.092194 -0.050268 153 76 0
0.698976 -0.094877 0.011235 153 0 76
-0.149377 -0.126890 0.232180 204 51 127
-0.076251 -0.408064 -0.018394 255 0 0
-0.288145 0.003493 -0.003761 76 153 0
-0.495638 0.522862 0.241543 127 0 127
0.259854 0.487109 0.228595 0 255 0
0.228972 -0.408064 -0.132083 255 0 0
0.040333 0.442590 -0.461642 127 0 127
-0.647642 -0.023369 0.106847 76 153 0
-0.348645 -0.408064 -0.188917 255 0 0
0.299950 -0.094877 -0.152299 153 0 76
0.440369 -0.381202 -0.364485 255 0 0
-0.681454 -0.226039 0.254565 76 0 153
-0.703694 -0.263387 0.021940 153 76 0
0.281361 0.351499 0.589092 153 0 76
-0.112963 0.487109 -0.252487 255 0 0
-0.484671 0.487109 -0.316005 255 0 0
0.614094 -0.381202 -0.389588 255 0 0
0.426087 -0.381202 -0.453285 255 0 0
-0.703694 0.234611 0.134162 153 76 0
0.728847 0.073743 0.175373 76 0 153
0.601047 0.487109 0.007561 255 0 0
0.497226 -0.381202 -0.248344 255 0 0
-0.295729 -0.381202 0.140757 255 0 0
-0.669237 0.413333 0.228548 0 255 0
-0.577638 -0.381202 -0.332761 255 0 0
0.026157 -0.381202 -0.214711 255 0 0
0.217927 0.492271 -0.461680 255 0 0
-0.703694 -0.120975 -0.237125 153 76 0
-0.703694 -0.482921 -0.002224 153 76 0
-0.730556 0.059573 -0.387474 153 76 0
0.734326 -0.551546 -0.303056 76 0 153
-0.127069 0.522862 -0.101599 255 0 0
0.010280 -0.260382 0.252648 76 0 153
-0.673863 0.487109 -0.183507 255 0 0
-0.053453 0.040551 0.236657 76 0 153
-0.186882 0.317996 0.232180 204 51 127
0.701654 -0.427848 -0.066516 153 0 76
-0.535371 0.110563 0.232180 204 51 127
0.309920 -0.509244 0.272537 153 0 76
-0.176664 -0.208577 0.232180 204 51 127
0.498693 0.522862 0.062678 255 0 0
-0.707873 -0.159042 0.254659 153 76 0
-0.068668 -0.023369 -0.022602 76 153 0
0.728847 0.452409 0.186949 76 0 153
0.728847 -0.516852 -0.126250 76 0 153
-0.216581 -0.408064 -0.157614 255 0 0
0.728847 0.069248 -0.422467 76 0 153
0.288185 -0.408064 -0.226410 255 0 0
-0.410709 -0.159874 0.232180 204 51 127
0.728847 -0.142560 -0.183024 76 0 153
-0.403025 -0.381202 0.161797 255 0 0
-0.748335 -0.433309 0.089245 76 0 153
0.363382 -0.381202 -0.161973 255 0 0
0.479989 -0.433323 -0.353997 0 0 255
0.251305 -0.529601 -0.327135 0 0 255
-0.549214 -0.023369 0.025821 76 153 0
0.551312 -0.068015 -0.125676 153 0 76
0.728847 -0.229889 -0.431938 76 0 153
0.072431 -0.068015 -0.058440 153 0 76
0.076575 0.522862 0.247136 255 0 0
-0.510807 -0.381202 -0.397238 255 0 0
0.755709 0.241735 0.057090 76 0 153
0.579737 0.471529 0.227937 255 0 0
-0.252074 -0.381202 0.049200 255 0 0
0.671540 0.522862 -0.096706 255 0 0
-0.254809 0.003493 -0.207854 76 153 0
0.209850 -0.408064 -0.012635 255 0 0
0.371897 0.522862 -0.291931 255 0 0
-0.482041 0.211306 0.232180 204 51 127
-0.177862 -0.434313 0.227796 153 0 76
0.684440 0.413172 0.276513 0 255 0
0.755709 -0.086469 -0.279996 76 0 153
0.767571 0.489233 0.047128 127 127 0
-0.320402 0.487109 0.078795 255 0 0
-0.703694 0.132833 -0.193740 153 76 0
0.443258 -0.365755 0.467537 153 0 76
-0.534456 0.030711 0.232180 76 0 153
-0.616580 0.350655 0.232581 204 51 127
-0.508657 0.487109 0.053851 255 0 0
-0.277482 0.505017 -0.193284 255 0 0
0.016259 -0.070197 -0.251814 153 0 76
-0.419719 -0.551080 -0.335478 0 0 255
0.371280 -0.076676 0.499186 153 76 0
0.765823 0.522862 -0.387614 255 0 0
0.142029 -0.502808 0.272537 153 0 76
0.528098 0.517281 0.299354 255 0 0
-0.703694 -0.482875 -0.069190 153 76 0
0.567663 0.248388 0.346139 153 76 0
-0.775429 0.520745 0.091821 255 0 0
0.044365 0.166441 -0.461642 127 0 127
-0.703694 -0.474820 -0.443727 153 76 0
0.438781 0.487109 -0.091869 255 0 0
0.448290 0.487109 -0.203070 255 0 0
-0.703694 -0.221886 -0.307020 153 76 0
0.417550 0.522862 0.261465 255 0 0
0.470467 -0.532273 -0.353997 0 0 255
-0.067531 -0.381202 0.099400 255 0 0
-0.230171 -0.397782 0.227796 255 0 0
-0.755529 -0.485280 0.036386 76 0 153
0.161933 -0.495492 -0.327135 0 0 255
0.755709 -0.168472 0.114695 76 0 153
-0.703694 0.159545 -0.434814 153 76 0
-0.455897 -0.434225 0.208185 76 0 153
0.646767 0.487109 0.181865 255 0 0
0.048417 0.299487 0.213075 127 127 0
0.396446 0.253674 0.474692 153 76 0
0.176478 0.324954 0.634251 153 0 76
-0.706968 -0.489192 0.272537 153 0 76
-0.756695 0.504954 -0.098566 255 0 0
0.212056 -0.068015 0.144173 153 0 76
-0.603228 0.522862 0.074521 255 0 0
-0.609610 0.522862 0.181594 255 0 0
-0.727914 0.320268 0.254659 153 76 0
0.651071 0.522862 0.008051 255 0 0
0.356849 0.522862 -0.117730 255 0 0
-0.169580 0.003493 -0.200178 76 153 0
-0.730556 -0.183004 -0.060690 153 76 0
0.779872 -0.486425 -0.461507 204 51 127
-0.014320 0.522862 -0.460707 255 0 0
-0.387173 -0.381202 -0.404219 255 0 0
0.708585 -0.408064 -0.165956 153 0 76
-0.637439 -0.408064 -0.288275 255 0 0
-0.268681 0.003493 -0.113426 76 153 0
-0.138800 0.003493 -0.253664 76 153 0
-0.021189 0.380453 -0.434780 127 0 127
-0.678441 -0.061531 0.227703 76 0 153
0.717447 -0.056517 0.261670 153 0 76
0.552413 -0.381202 -0.126539 255 0 0
-0.332104 0.522862 -0.456440 255 0 0
-0.703694 -0.135576 -0.019333 153 76 0
0.085341 -0.381202 0.195784 255 0 0
0.161345 0.229631 0.679203 153 0 76
-0.338471 -0.105729 0.245611 204 51 127
-0.626858 0.505017 -0.001746 255 0 0
-0.223670 0.003493 -0.301141 76 153 0
-0.466209 -0.408064 0.086496 255 0 0
-0.703694 0.231820 -0.414206 153 76 0
-0.730556 0.118578 0.121590 153 76 0
-0.415313 0.487109 -0.282623 255 0 0
-0.730556 -0.330101 -0.059575 153 76 0
-0.429909 0.504954 0.026198 255 0 0
0.426047 -0.551557 0.260432 153 0 76
0.541574 -0.434581 -0.301210 153 76 0
-0.730556 0.041672 0.194610 153 76 0
0.728847 0.408240 -0.186846 76 0 153
0.233258 -0.408064 -0.398529 255 0 0
0.373886 -0.068015 -0.180011 153 0 76
0.755709 0.320906 -0.111512 76 0 153
-0.024438 0.487109 -0.178915 255 0 0
-0.730556 -0.067953 -0.216642 153 76 0
0.086294 -0.381202 -0.105288 255 0 0
-0.684703 -0.381202 0.119558 255 0 0
0.117072 -0.408064 -0.390718 255 0 0
0.040809 0.180396 0.200875 127 127 0
-0.153060 0.230419 0.232180 204 51 127
-0.730556 0.398184 -0.209005 153 76 0
-0.189786 -0.408064 -0.050815 255 0 0
-0.256730 0.035027 0.242584 204 51 127
-0.182018 -0.408064 0.144712 255 0 0
-0.170136 0.449073 0.254799 0 255 0
0.779452 -0.493022 0.103310 204 51 127
-0.576197 -0.482303 -0.353997 0 0 255
-0.293553 -0.510760 0.272537 153 0 76
-0.198916 -0.408064 -0.360360 0 0 255
0.362331 0.487109 -0.411275 255 0 0
-0.730556 -0.003104 0.026495 153 76 0
0.728847 -0.280031 -0.331976 76 0 153
0.773399 -0.491150 -0.393558 204 51 127
-0.478072 -0.381202 -0.333598 255 0 0
-0.058164 0.003493 -0.420729 76 153 0
0.016259 -0.083839 0.147617 153 0 76
0.755709 -0.353629 -0.246582 76 0 153
-0.224783 0.093330 0.232180 204 51 127
0.728847 -0.183489 0.044943 76 0 153
0.386009 -0.491276 0.280728 153 0 76
0.348455 -0.094877 0.012257 153 0 76
0.016697 -0.381202 -0.000209 255 0 0
0.285910 -0.408064 -0.072376 255 0 0
0.596923 -0.068015 -0.164618 153 0 76
0.035425 0.487109 0.118940 255 0 0
0.485861 -0.068015 -0.061494 153 0 76
0.677162 -0.490699 0.227796 153 0 76
0.728847 -0.287925 -0.028463 76 0 153
0.638477 -0.408064 -0.045358 255 0 0
-0.505979 0.003493 -0.248150 76 153 0
0.293507 0.487109 -0.191831 255 0 0
-0.730556 0.057931 0.093872 153 76 0
-0.635959 -0.381202 -0.077463 255 0 0
0.004850 -0.090685 0.254565 76 0 153
0.755709 0.037098 -0.208869 76 0 153
0.672799 0.504954 0.079618 255 0 0
-0.200070 0.487109 -0.002365 255 0 0
-0.474375 0.410090 0.227703 0 255 0
0.493337 -0.381202 0.163719 255 0 0
-0.458900 0.007423 0.245611 204 51 127
0.301821 -0.068015 -0.265296 153 0 76
0.204823 -0.408064 -0.215829 255 0 0
-0.117226 0.522862 0.210307 255 0 0
-0.353245 0.487109 -0.021021 255 0 0
0.755709 0.220306 -0.186499 76 0 153
-0.480431 0.504954 0.297945 255 0 0
0.728096 -0.094877 -0.409683 76 0 153
0.755709 0.304502 0.247405 76 0 153
0.427481 -0.408064 0.080058 255 0 0
0.048118 -0.288711 -0.434780 127 0 127
0.773399 -0.452040 0.050377 76 0 153
-0.559796 0.487109 -0.392906 255 0 0
-0.730556 -0.375639 -0.231739 153 76 0
-0.020168 0.522862 -0.314976 255 0 0
-0.730556 -0.271483 -0.435074 153 76 0
0.249798 -0.071395 -0.432799 153 0 76
0.548794 -0.391114 0.254658 153 0 76
0.728908 0.522862 -0.439913 255 0 0
0.555506 0.522862 -0.407879 255 0 0
-0.261325 0.487109 -0.301449 255 0 0
0.755709 -0.073991 0.063242 76 0 153
-0.007903 -0.023369 0.019728 76 153 0
-0.502548 -0.408064 -0.147666 255 0 0
-0.703694 0.103189 0.008791 153 76 0
0.701654 -0.426657 0.015376 153 0 76
-0.272697 -0.357689 0.227703 76 0 153
-0.492425 -0.023369 0.010917 76 153 0
-0.518932 0.522862 -0.455782 255 0 0
0.748964 0.499897 0.254694 255 0 0
0.358266 -0.094877 -0.426815 153 0 76
0.310880 -0.408064 -0.172862 255 0 0
-0.457572 -0.408064 -0.254764 255 0 0
-0.044140 -0.023369 -0.270634 76 153 0
-0.730556 0.210841 -0.035179 153 76 0
-0.545288 -0.408064 -0.223601 255 0 0
-0.571229 0.522862 -0.101804 255 0 0
0.308558 0.522862 0.037240 255 0 0
0.781887 -0.487590 -0.233220 204 51 127
0.699858 0.522862 -0.221538 255 0 0
0.361094 -0.094877 -0.229809 153 0 76
-0.282916 0.173908 0.236657 204 51 127
-0.307857 -0.023369 -0.217293 76 153 0
-0.086298 -0.511000 0.272537 153 0 76
0.728847 0.363013 0.120827 76 0 153
0.239144 -0.551557 0.270013 153 0 76
-0.730556 0.387657 0.251526 153 76 0
0.755709 0.425621 -0.116222 76 0 153
0.378539 -0.443880 0.208579 76 0 153
0.773399 -0.505227 -0.033336 204 51 127
0.068415 -0.068015 -0.137304 153 0 76
0.705716 -0.408064 -0.230993 255 0 0
-0.127858 -0.408064 0.192130 255 0 0
0.213487 0.060357 0.684664 76 0 153
0.495406 -0.316578 0.397202 153 0 76
-0.099330 -0.023369 0.166192 76 153 0
-0.051272 0.487109 0.144156 255 0 0
0.212468 -0.068015 -0.142646 153 0 76
0.565276 -0.381202 -0.021557 255 0 0
0.269913 0.098379 0.569696 153 76 0
-0.021933 -0.164856 0.200875 127 127 0
-0.424183 0.003493 -0.305006 76 153 0
-0.219246 -0.495310 0.272537 153 0 76
-0.458453 0.487109 -0.033202 255 0 0
-0.746673 -0.551553 0.133219 76 0 153
-0.703694 -0.137886 -0.122327 153 76 0
-0.590383 0.522862 -0.180442 255 0 0
-0.547016 -0.381202 -0.027336 255 0 0
0.033182 0.070626 0.227737 127 127 0
-0.748577 -0.515436 -0.156192 153 76 0
0.026048 -0.461655 0.227796 153 0 76
-0.435370 -0.366568 0.254565 76 0 153
0.192678 0.487109 0.190565 255 0 0
-0.703694 -0.202574 0.079368 153 76 0
0.487074 0.263457 0.412245 153 76 0
-0.646830 -0.381202 0.034756 255 0 0
0.265098 0.522862 0.121807 255 0 0
0.426936 -0.094877 -0.379133 153 0 76
0.639288 0.487109 -0.421777 255 0 0
-0.215763 0.522862 -0.298056 255 0 0
-0.744187 -0.551553 0.211677 76 0 153
-0.528145 0.487109 0.150001 255 0 0
0.065573 0.487109 -0.184159 255 0 0
0.728847 0.385904 0.201622 76 0 153
0.580240 0.413172 0.332116 153 0 76
-0.365321 -0.408064 0.028855 255 0 0
0.254609 -0.068015 -0.187814 153 0 76
0.508454 -0.432721 0.272183 153 0 76
0.775964 0.496076 -0.284212 127 127 0
0.728847 0.278447 -0.294466 76 0 153
-0.703694 -0.097231 0.072199 153 76 0
0.346511 -0.512782 0.227796 153 0 76
0.562669 0.487109 0.146094 255 0 0
-0.040258 0.003493 -0.187969 76 153 0
0.755709 0.062243 -0.326337 76 0 153
0.122349 -0.408064 -0.142155 255 0 0
-0.675787 0.168553 0.227703 76 0 153
-0.153754 -0.408064 -0.215869 255 0 0
-0.071111 -0.429740 0.254629 153 0 76
-0.653163 -0.009405 -0.431234 76 153 0
0.314622 0.397683 0.530528 153 0 76
-0.703694 -0.235569 -0.073934 153 76 0
0.163137 -0.232913 0.677858 153 0 76
0.754229 0.522862 0.138162 255 0 0
0.335773 -0.071905 0.198457 153 0 76
0.533933 0.338825 0.371464 153 76 0
0.611287 -0.408064 -0.217479 255 0 0
-0.221826 0.522862 0.296772 255 0 0
0.115693 0.487109 0.145910 255 0 0
0.389698 -0.094877 0.134954 153 0 76
0.192722 0.522862 0.299125 255 0 0
0.024955 0.522862 -0.222285 255 0 0
-0.702754 0.522862 -0.071286 255 0 0
0.728847 -0.482784 -0.005986 76 0 153
-0.730556 0.052347 -0.457511 153 76 0
-0.119595 -0.492222 0.227796 153 0 76
-0.269524 0.487109 -0.000964 255 0 0
-0.267245 -0.497154 -0.327135 0 0 255
0.144391 -0.094877 -0.234468 153 0 76
-0.308295 0.487109 -0.130467 255 0 0
0.202191 0.487109 -0.031868 255 0 0
-0.314270 0.522862 -0.244354 255 0 0
0.360183 -0.193521 0.501919 153 76 0
0.246446 -0.121213 0.592914 153 76 0
0.171275 0.123766 0.671747 153 0 76
0.686396 -0.408064 0.130751 255 0 0
0.048417 -0.035895 0.227366 127 127 0
-0.703694 -0.540803 0.016865 153 76 0
-0.730556 -0.016431 -0.262548 153 76 0
0.533902 -0.094877 -0.235920 153 0 76
0.388768 0.522862 0.022428 255 0 0
0.469822 0.522862 0.111350 255 0 0
-0.461132 0.330061 0.232180 76 0 153
0.728847 -0.353208 0.099160 76 0 153
0.755709 -0.045128 -0.137061 76 0 153
0.597482 0.522862 -0.155746 255 0 0
0.291315 -0.068015 -0.367309 153 0 76
0.728847 -0.027765 -0.050383 76 0 153
0.728830 0.505017 0.086551 255 0 0
0.267473 -0.465067 -0.353997 0 0 255
0.500917 -0.068015 0.130815 153 0 76
0.485432 0.107732 0.413478 153 76 0
-0.277035 -0.423688 0.254658 153 0 76
-0.600077 0.236468 0.232180 204 51 127
-0.299018 -0.381202 -0.100980 255 0 0
0.180954 -0.381202 -0.100247 255 0 0
-0.703694 -0.307474 0.090476 153 76 0
-0.604979 0.522862 -0.439147 255 0 0
0.363705 0.426907 0.227937 0 255 0
-0.571405 -0.381202 0.205192 153 0 76
-0.730556 -0.382881 -0.025116 153 76 0
-0.252149 -0.291711 0.232180 204 51 127
-0.072958 0.409815 0.227703 76 0 153
-0.450126 -0.023369 -0.115220 76 153 0
0.192647 -0.068592 -0.432799 153 0 76
-0.408485 0.003493 -0.244851 76 153 0
-0.730556 0.289522 -0.186689 153 76 0
-0.735181 0.469132 -0.205535 0 127 127
0.644034 -0.094877 0.022920 153 0 76
0.526298 -0.508041 0.227796 153 0 76
0.197101 -0.193039 0.652357 153 0 76
-0.730556 0.383019 0.018033 153 76 0
-0.257809 -0.408064 -0.206017 255 0 0
-0.117152 0.003493 -0.355693 76 153 0
0.223709 0.522862 -0.273429 255 0 0
0.323179 -0.405591 0.254658 153 0 76
0.515808 0.018759 0.401868 153 0 76
0.010280 -0.188979 0.246217 76 0 153
0.312320 0.498203 0.279573 255 0 0
0.332452 -0.105317 0.528339 153 76 0
0.109190 -0.381202 -0.033304 255 0 0
-0.060263 0.003493 -0.071020 76 153 0
0.548458 -0.094877 -0.339767 153 0 76
0.267287 0.272364 0.577266 153 76 0
0.118034 -0.094877 -0.286083 153 0 76
0.381367 0.372654 0.480416 153 0 76
0.639696 -0.435698 0.227796 153 0 76
-0.703694 0.486830 -0.356501 153 76 0
-0.730556 0.401248 -0.369878 153 76 0
0.790891 0.504954 -0.066561 255 0 0
-0.260123 0.505017 -0.402663 255 0 0
0.002721 -0.023369 -0.358672 76 153 0
-0.001136 0.487109 -0.126709 255 0 0
0.559510 -0.381202 -0.415969 255 0 0
0.728847 -0.197858 0.164972 76 0 153
-0.161422 0.487109 0.149145 255 0 0
-0.590039 -0.023369 -0.301322 76 153 0
-0.775429 0.515503 -0.228858 255 0 0
-0.288921 0.452110 0.254799 0 255 0
0.728847 -0.420764 -0.395989 76 0 153
-0.703694 0.316967 -0.355838 153 76 0
-0.730556 -0.305329 -0.340154 153 76 0
0.755709 0.349399 0.010917 76 0 153
0.728847 -0.027093 0.076510 76 0 153
0.453145 -0.094877 0.196353 153 0 76
0.755709 -0.122176 -0.449616 76 0 153
0.139184 0.522862 -0.273349 255 0 0
0.458119 0.522862 -0.279587 255 0 0
-0.093167 0.487109 -0.362384 255 0 0
0.583927 0.018693 0.333927 153 0 76
0.247196 0.522862 -0.088215 255 0 0
-0.346948 -0.381202 -0.345280 255 0 0
-0.097115 -0.023369 -0.127208 76 153 0
0.755709 -0.223779 -0.038231 76 0 153
-0.279477 -0.023369 -0.324509 76 153 0
-0.385279 0.487109 -0.089274 255 0 0
-0.544776 -0.530171 0.272537 153 0 76
0.640261 -0.135174 0.297230 153 76 0
0.397472 0.522862 0.192009 255 0 0
-0.373517 -0.431190 0.271549 153 0 76
0.428957 -0.068015 0.075883 153 0 76
0.728847 -0.549073 -0.064866 76 0 153
0.474450 -0.408064 -0.140396 255 0 0
0.613193 -0.068015 -0.061372 153 0 76
0.418660 0.063794 0.463612 153 0 76
0.010280 -0.316149 0.247591 76 0 153
0.758121 -0.435486 -0.461347 76 0 153
0.048316 -0.076861 -0.461301 127 0 127
0.667169 0.100013 0.294594 153 0 76
-0.703694 0.341396 -0.108146 153 76 0
0.465696 -0.094877 -0.169997 153 0 76
0.476293 0.522862 0.012104 255 0 0
-0.016341 -0.514580 0.227796 153 0 76
-0.703694 -0.499826 -0.394405 153 76 0
0.387033 -0.408064 -0.261402 255 0 0
0.280283 0.522862 -0.291655 255 0 0
-0.450677 0.505017 0.214805 255 0 0
0.131730 -0.094877 -0.049904 153 0 76
-0.723267 0.487103 -0.282002 255 0 0
0.288446 0.522862 -0.347861 255 0 0
-0.206986 0.003493 0.175836 76 153 0
0.250801 -0.010458 0.584046 153 76 0
-0.678938 -0.435645 -0.184533 153 0 76
0.755709 0.008360 -0.291364 76 0 153
-0.652194 0.487109 -0.335955 255 0 0
0.728847 0.193681 0.058126 76 0 153
0.755709 -0.182836 -0.338117 76 0 153
0.664332 -0.094877 -0.121246 153 0 76
0.728847 0.062940 0.071602 76 0 153
-0.669079 0.522862 0.237331 255 0 0
-0.632564 -0.023369 -0.257680 76 153 0
0.324419 -0.381202 0.028418 255 0 0
0.523981 0.487109 -0.040222 255 0 0
-0.542602 0.003493 0.170214 76 153 0
0.420064 -0.114881 0.468790 153 76 0
-0.390270 -0.433167 -0.300273 76 153 0
0.119822 -0.480079 0.227796 153 0 76
0.570035 0.487109 0.054803 255 0 0
0.612435 0.522862 -0.238536 255 0 0
0.728847 -0.020700 -0.431872 76 0 153
-0.748577 -0.519747 -0.069213 76 0 153
0.230930 -0.480470 0.227796 153 0 76
-0.703694 -0.387428 -0.139692 255 0 0
0.149443 -0.094877 0.022658 153 0 76
0.657001 -0.238248 0.279062 153 0 76
0.048943 -0.381202 0.146161 255 0 0
-0.703694 -0.091171 -0.150751 153 76 0
-0.672304 -0.381202 -0.254489 255 0 0
0.755709 0.415021 -0.053544 76 0 153
-0.195797 0.522862 -0.139563 255 0 0
-0.069609 -0.381202 -0.282756 255 0 0
-0.199203 -0.381202 -0.442920 255 0 0
0.459715 0.415681 0.228154 0 255 0
-0.355509 -0.002475 0.200022 76 153 0
-0.111046 -0.408064 0.080376 255 0 0
-0.703694 0.390890 -0.419131 153 76 0
-0.649837 -0.549919 -0.353997 0 0 255
0.451497 -0.408064 -0.021249 255 0 0
0.728847 0.431525 -0.456207 76 0 153
0.773399 -0.521958 0.151047 204 51 127
0.356627 -0.255102 0.504589 153 76 0
0.524433 -0.484434 0.278132 153 0 76
0.728847 -0.549906 -0.428107 76 0 153
0.755709 0.179662 -0.334734 76 0 153
-0.575612 0.522862 0.253151 255 0 0
-0.730556 0.007038 0.115943 153 76 0
-0.610184 -0.023369 -0.142350 76 153 0
0.070756 0.522862 -0.111069 255 0 0
0.444976 -0.383192 0.254658 153 0 76
-0.469533 -0.381202 0.198521 255 0 0
0.710265 -0.384796 -0.461642 255 0 0
-0.730556 -0.170489 -0.235102 153 76 0
0.135745 -0.068015 -0.153135 153 0 76
-0.362135 -0.023369 -0.017530 76 153 0
0.600926 0.522862 -0.093520 255 0 0
-0.353056 0.069749 0.232180 76 0 153
-0.459665 -0.381202 -0.167236 255 0 0
-0.150952 -0.508909 0.272537 153 0 76
-0.703694 0.282656 0.210277 153 76 0
-0.724146 0.504954 0.011633 255 0 0
0.755709 -0.118868 -0.223721 76 0 153
0.741995 -0.551546 0.048818 76 0 153
-0.581358 0.522862 -0.267769 255 0 0
0.691719 0.123150 0.247396 153 0 76
-0.205675 -0.408064 0.056987 255 0 0
0.728847 0.256820 -0.030924 76 0 153
-0.054776 0.487109 0.254627 0 255 0
0.099885 -0.094877 -0.396058 153 0 76
-0.744462 -0.551553 -0.399661 76 0 153
0.755709 -0.274230 -0.407748 76 0 153
-0.730556 0.234361 -0.160690 153 76 0
0.551951 -0.503229 -0.353997 0 0 255
0.182276 0.072996 0.629897 153 0 76
0.226499 -0.270428 0.602292 153 76 0
0.505884 0.487109 -0.186299 255 0 0
0.599186 -0.408064 0.165461 255 0 0
-0.353518 -0.381202 0.185419 255 0 0
0.567582 0.104530 0.346200 153 76 0
-0.703694 -0.511423 0.211925 153 76 0
0.025274 -0.408064 -0.157099 255 0 0
-0.441034 0.522862 -0.148105 255 0 0
0.675678 -0.381202 0.204927 255 0 0
0.728847 -0.260017 0.056038 76 0 153
-0.677370 0.522862 -0.252714 255 0 0
0.728847 0.297856 -0.173644 76 0 153
-0.354702 -0.480795 0.227796 153 0 76
-0.224532 0.487109 0.157432 255 0 0
-0.703694 -0.528310 0.105186 153 76 0
-0.496954 0.522862 -0.098379 255 0 0
-0.532841 -0.023369 -0.387657 76 153 0
0.728847 -0.447281 -0.133086 76 0 153
-0.637590 0.003493 0.061344 76 153 0
0.069897 -0.068015 -0.303912 153 0 76
0.038053 0.522862 -0.045530 255 0 0
0.382297 -0.416879 -0.353997 255 0 0
0.279634 -0.431115 -0.300191 153 76 0
-0.703694 -0.487742 -0.279954 153 76 0
-0.389876 -0.408064 -0.153672 255 0 0
0.728847 0.479503 -0.136799 255 0 0
-0.686774 -0.375084 0.227703 76 0 153
0.615471 -0.309507 0.338236 153 0 76
0.634140 -0.381202 -0.143601 255 0 0
0.709550 -0.094877 0.122479 76 0 153
-0.378472 -0.023369 -0.395377 76 153 0
0.616986 -0.240760 0.314705 153 76 0
0.409278 -0.381202 -0.195385 255 0 0
-0.340024 0.255265 0.236657 76 0 153
-0.730556 0.274905 -0.074918 153 76 0
-0.499397 -0.444451 0.254658 153 0 76
0.755709 0.103197 0.138344 76 0 153
-0.454627 0.003493 0.083486 76 153 0
-0.730556 -0.426484 -0.085117 153 76 0
-0.342440 -0.023369 0.092785 76 153 0
0.755709 -0.114713 0.203216 76 0 153
0.773399 -0.483628 -0.337398 204 51 127
0.696436 0.476313 0.254694 0 255 0
-0.358768 -0.457930 -0.353997 0 0 255
0.348328 -0.551080 -0.347090 0 0 255
-0.207814 0.487109 0.088544 255 0 0
-0.703694 0.031740 -0.342212 153 76 0
-0.034604 -0.381202 0.014699 255 0 0
0.755709 0.166039 0.146834 76 0 153
0.257526 -0.350675 0.573397 153 0 76
0.773399 -0.445422 -0.162560 204 51 127
-0.348842 0.522862 -0.393238 255 0 0
0.545574 0.487109 -0.251556 255 0 0
0.675107 -0.313111 0.259869 153 0 76
-0.703694 -0.524911 -0.240810 153 76 0
-0.703576 -0.011324 -0.111196 153 76 0
-0.606587 -0.408064 -0.203405 255 0 0
0.440542 0.114189 0.441584 153 0 76
-0.703694 -0.263561 -0.223001 153 76 0
0.486877 0.498788 -0.461680 255 0 0
0.216005 0.487109 -0.392042 255 0 0
-0.280678 -0.186858 0.236657 204 51 127
0.773399 -0.454306 -0.066601 204 51 127
-0.217785 -0.023369 -0.110297 76 153 0
0.660462 -0.406550 -0.461642 255 0 0
-0.334406 0.522862 0.124234 255 0 0
0.233555 0.385492 0.591396 153 0 76
-0.747220 -0.551553 -0.111786 153 76 0
-0.456624 -0.408064 -0.431798 255 0 0
0.728847 -0.170306 0.227756 153 0 76
-0.703694 -0.497388 -0.121945 153 76 0
-0.490938 -0.023369 -0.302121 76 153 0
0.195746 -0.435905 0.272537 153 0 76
0.270652 0.152445 0.569141 153 76 0
-0.684517 -0.023369 -0.305751 76 153 0
-0.703694 0.022270 -0.197075 153 76 0
0.116158 -0.494586 -0.353997 0 0 255
-0.410496 0.522862 -0.383681 255 0 0
0.728847 0.041264 -0.065704 76 0 153
0.755709 -0.264743 -0.143330 76 0 153
-0.020288 0.487109 0.101111 255 0 0
-0.528183 -0.495102 0.227796 153 0 76
-0.303016 0.353329 0.227703 204 51 127
0.358176 0.487109 -0.220100 255 0 0
-0.474069 -0.505093 -0.353997 0 0 255
-0.265264 0.522862 0.248343 255 0 0
0.617294 0.522862 -0.318678 255 0 0
0.205148 -0.408064 -0.453724 255 0 0
-0.471254 -0.538260 0.272537 153 0 76
-0.378967 0.003493 -0.346547 76 153 0
-0.603999 -0.319995 0.227703 76 0 153
0.755709 0.428861 0.033545 76 0 153
-0.251474 -0.023369 0.078703 76 153 0
-0.562749 0.487109 0.099295 255 0 0
0.755709 0.053984 0.216393 76 0 153
-0.328978 0.003493 -0.305503 76 153 0
-0.356129 -0.023369 -0.158152 76 153 0
0.167691 -0.381202 -0.049107 255 0 0
-0.730556 -0.323915 -0.187002 153 76 0
0.764989 -0.426263 0.220629 76 0 153
-0.730556 0.337128 -0.294645 153 76 0
0.755709 0.265224 0.199501 76 0 153
0.268471 -0.381202 0.059477 255 0 0
0.601061 -0.422195 -0.300191 153 76 0
0.389997 -0.068015 -0.082680 153 0 76
0.640618 -0.029523 0.296962 153 76 0
0.048417 -0.287050 0.223899 127 127 0
-0.550022 -0.023369 -0.125751 76 153 0
-0.403581 -0.434225 0.201763 76 0 153
0.518365 0.522862 -0.093245 255 0 0
-0.696067 0.003493 -0.029535 76 153 0
0.750729 0.522862 0.003500 255 0 0
0.356958 0.094612 0.504340 153 76 0
-0.288867 0.487109 -0.355676 255 0 0
-0.018221 -0.408064 -0.106647 255 0 0
-0.391589 -0.408064 -0.243532 255 0 0
-0.475387 0.003493 0.151561 76 153 0
0.152141 -0.094877 -0.326555 153 0 76
-0.233529 0.504954 -0.092042 255 0 0
-0.401326 0.487109 0.185280 255 0 0
0.583493 0.522862 0.241865 255 0 0
0.728847 0.438721 -0.286355 76 0 153
-0.370008 -0.201352 0.236657 76 0 153
-0.573154 0.522862 0.143162 255 0 0
-0.748577 -0.526298 -0.453388 76 0 153
-0.491793 -0.434207 -0.300273 76 153 0
0.109965 0.487109 0.027543 255 0 0
0.475895 -0.381202 0.074946 255 0 0
0.303697 -0.323106 0.538731 153 0 76
-0.568217 0.345571 0.254565 204 51 127
0.070893 -0.551080 -0.353449 0 0 255
-0.399138 0.003493 0.150749 76 153 0
0.545075 -0.307787 0.368697 153 76 0
0.608602 -0.428699 0.269752 153 0 76
-0.068797 -0.172495 0.232180 204 51 127
0.755709 -0.203374 -0.118198 76 0 153
0.582211 -0.068015 -0.277654 153 0 76
0.057597 0.522862 -0.314517 255 0 0
-0.364820 -0.408064 0.081114 255 0 0
0.379560 -0.026451 0.487371 153 76 0
-0.730556 -0.371891 0.160304 153 76 0
0.574704 -0.551547 0.228974 153 0 76
0.728847 0.147727 -0.094366 76 0 153
-0.655750 0.487109 0.198072 255 0 0
0.691248 0.198823 0.247750 153 0 76
-0.140838 0.522862 -0.285096 255 0 0
-0.503780 -0.408064 0.122700 255 0 0
0.337044 0.522862 -0.028176 255 0 0
0.451565 -0.408064 -0.087436 255 0 0
0.183762 -0.071574 0.198457 153 0 76
-0.730556 0.118826 -0.400407 153 76 0
-0.479116 -0.408064 -0.083360 255 0 0
0.034064 -0.094877 -0.355964 153 0 76
-0.703694 -0.340954 0.044494 153 76 0
0.622416 -0.068015 -0.426448 153 0 76
-0.701562 0.210572 0.253724 76 0 153
0.002397 -0.007507 0.200022 76 153 0
0.733100 -0.551546 0.136647 76 0 153
-0.160921 0.003493 0.120526 76 153 0
0.269409 -0.094877 0.151747 153 0 76
-0.528479 0.254555 0.232180 204 51 127
-0.730556 -0.163001 0.158039 153 76 0
-0.066521 -0.381202 -0.072047 255 0 0
0.615419 -0.068015 0.127823 153 0 76
-0.551207 0.522862 0.055079 255 0 0
-0.748577 -0.453528 -0.199128 76 0 153
-0.600141 -0.140278 0.236657 204 51 127
-0.668573 -0.278858 0.227703 76 0 153
0.311494 0.003309 0.544074 153 0 76
-0.122777 -0.408064 -0.105857 255 0 0
-0.389612 0.487109 -0.190822 255 0 0
0.499205 -0.094877 -0.318866 153 0 76
-0.703694 -0.049509 -0.454714 153 76 0
-0.692251 -0.408064 -0.343528 255 0 0
-0.190049 -0.408064 -0.252982 255 0 0
0.105775 -0.381202 -0.282488 255 0 0
0.400132 0.487109 -0.333442 255 0 0
-0.603339 -0.067948 0.232180 204 51 127
0.040913 -0.450271 -0.353997 0 0 255
0.397372 -0.408064 -0.008724 255 0 0
-0.169986 0.522862 -0.418612 255 0 0
-0.602801 -0.381202 0.062124 255 0 0
0.707811 -0.455139 0.272537 153 0 76
0.395288 0.522862 0.109268 255 0 0
0.327141 -0.068015 -0.324403 153 0 76
0.002753 0.476395 0.260131 0 255 0
0.208003 -0.408064 0.208584 255 0 0
-0.628550 -0.381202 0.209646 255 0 0
-0.267059 0.283164 0.232180 204 51 127
0.186053 -0.094877 0.108374 153 0 76
0.700434 -0.539426 0.227796 153 0 76
-0.623922 -0.551557 0.262181 153 0 76
-0.743476 -0.427138 -0.135188 76 0 153
-0.208851 -0.037698 0.236657 204 51 127
0.370834 -0.408064 0.077215 255 0 0
0.027109 -0.381421 0.231630 255 0 0
0.203330 0.522862 -0.327671 255 0 0
0.580815 -0.381202 0.072288 255 0 0
-0.630548 -0.500196 0.227796 153 0 76
0.556228 0.197502 0.354724 153 76 0
0.194774 -0.422758 -0.353997 0 0 255
0.206142 -0.051417 0.682206 76 0 153
-0.370128 -0.537293 0.227796 153 0 76
-0.118304 -0.023369 0.053278 76 153 0
-0.554529 -0.408064 -0.454090 255 0 0
-0.617619 0.018556 0.245611 76 0 153
-0.730556 0.237933 -0.256713 153 76 0
0.728847 0.001432 0.119492 76 0 153
-0.730556 0.411487 0.205294 153 76 0
-0.151825 0.408300 0.227703 76 0 153
0.322663 0.522862 -0.419083 255 0 0
-0.730556 0.073417 -0.238559 153 76 0
-0.369853 -0.023369 -0.090165 76 153 0
0.755709 -0.364612 0.201813 76 0 153
0.449409 -0.381202 -0.282925 255 0 0
0.550339 -0.094877 -0.391962 153 0 76
-0.113745 0.522862 0.059159 255 0 0
0.534697 -0.094877 0.096221 153 0 76
-0.730556 -0.242334 -0.117247 153 76 0
0.773399 -0.550236 0.213082 204 51 127
0.755709 0.181275 -0.258780 76 0 153
-0.748577 -0.537977 -0.264029 76 0 153
-0.703694 -0.458774 -0.233598 153 76 0
-0.730556 -0.177214 -0.330798 153 76 0
-0.638369 -0.467047 -0.353997 0 0 255
-0.730550 0.503816 -0.412921 255 0 0
0.751968 0.482571 -0.461671 76 0 153
0.477253 -0.388627 -0.461642 255 0 0
-0.135041 -0.408555 0.254658 153 0 76
0.146041 0.522862 -0.373336 255 0 0
0.163815 0.455202 0.254799 0 255 0
-0.276767 -0.023369 -0.045870 76 153 0
-0.416527 0.486000 0.264312 255 0 0
0.296856 -0.474864 0.227796 153 0 76
-0.211320 0.522862 -0.236226 255 0 0
0.466699 0.522862 -0.171513 255 0 0
0.773399 -0.534647 -0.334422 204 51 127
-0.032989 -0.381202 -0.332205 255 0 0
-0.585956 -0.381202 -0.123945 255 0 0
0.091300 0.487109 0.193095 255 0 0
-0.319650 -0.219786 0.232180 204 51 127
0.421142 -0.273233 0.470227 153 0 76
0.269788 -0.068015 0.052776 153 0 76
0.755709 -0.101413 0.004047 76 0 153
0.048417 -0.110911 0.222417 127 127 0
-0.453574 0.003493 -0.393286 76 153 0
-0.730556 -0.115058 -0.280394 153 76 0
0.024484 0.505017 0.182855 255 0 0
0.244938 -0.068015 -0.344359 153 0 76
0.450432 -0.490650 -0.327135 0 0 255
-0.378957 0.522862 -0.298968 255 0 0
0.188449 0.487109 0.058466 255 0 0
0.354099 0.487109 0.185755 255 0 0
-0.748577 -0.456171 0.260783 76 0 153
-0.628927 -0.408064 -0.425491 255 0 0
0.337697 0.522862 0.097993 255 0 0
-0.054989 -0.381202 -0.222541 255 0 0
0.389514 -0.408064 0.162895 255 0 0
-0.701562 -0.319153 0.228019 76 0 153
0.608725 -0.381202 -0.339021 255 0 0
0.640425 0.198429 0.291508 153 76 0
-0.520729 -0.381202 0.209212 255 0 0
-0.730556 0.111459 -0.150448 153 76 0
-0.730556 -0.281286 0.133075 153 76 0
-0.284692 -0.408064 -0.431401 255 0 0
0.495782 -0.381202 -0.370042 255 0 0
0.139676 -0.381202 -0.203712 255 0 0
0.390274 -0.094877 -0.316673 153 0 76
0.755709 0.114456 -0.318775 76 0 153
-0.612168 -0.455166 0.254629 153 0 76
0.697486 -0.094877 -0.193313 153 0 76
-0.525044 0.487109 -0.018063 255 0 0
0.535175 0.522862 -0.336214 255 0 0
0.728847 -0.214228 -0.249129 76 0 153
-0.051563 0.158883 0.254565 76 0 153
0.755709 -0.114639 0.108716 76 0 153
0.324025 -0.418397 0.201844 76 0 153
-0.023316 0.131930 -0.436504 127 0 127
0.195420 -0.068015 -0.224154 153 0 76
-0.730556 0.023246 -0.300181 153 76 0
-0.008336 -0.139183 -0.434780 127 0 127
0.034354 -0.353647 -0.461642 127 0 127
0.728847 0.402394 -0.414931 76 0 153
0.137727 0.522862 -0.178183 255 0 0
-0.513275 -0.217893 0.236657 204 51 127
0.626199 0.322935 0.302189 153 76 0
-0.730550 0.492257 -0.154766 0 127 127
-0.703694 -0.439281 0.114074 153 76 0
0.410635 -0.179060 0.469638 153 0 76
0.007940 -0.534510 0.272537 153 0 76
0.728847 -0.326006 -0.211588 76 0 153
0.728847 -0.446578 0.109993 76 0 153
-0.198252 0.487109 -0.054193 255 0 0
0.771973 -0.430374 -0.222765 204 51 127
-0.306859 -0.381202 -0.376713 255 0 0
0.597951 -0.155647 0.323398 153 76 0
0.551369 -0.408064 -0.066143 255 0 0
0.490976 -0.134165 0.409316 153 76 0
-0.083391 -0.549132 0.227796 153 0 76
0.083803 0.474605 0.259896 0 255 0
0.728847 -0.132321 -0.072321 76 0 153
-0.640052 0.487109 -0.252752 255 0 0
0.614520 -0.515594 0.272537 153 0 76
-0.531277 0.487109 -0.335412 255 0 0
-0.196030 0.522862 -0.356412 255 0 0
0.303174 -0.418367 -0.353997 0 0 255
-0.270372 -0.545786 0.227796 153 0 76
-0.552493 -0.381202 -0.269673 255 0 0
0.711713 -0.068015 -0.153322 153 0 76
0.552518 -0.094877 0.191747 153 0 76
-0.590173 -0.425743 -0.353997 0 0 255
0.755709 0.291809 -0.251792 76 0 153
-0.064044 0.487109 -0.409564 255 0 0
0.461261 0.504954 -0.373646 255 0 0
0.638437 -0.068015 -0.341083 153 0 76
-0.638195 -0.023369 -0.350700 76 153 0
0.288958 -0.068015 0.113780 153 0 76
0.518978 0.086925 0.382693 153 76 0
0.700069 -0.068015 -0.032570 153 0 76
0.620024 -0.077531 0.306825 153 76 0
-0.711591 0.522862 0.118340 255 0 0
-0.305226 0.522862 0.167822 255 0 0
0.482225 -0.205287 0.415886 153 76 0
-0.170797 0.487109 -0.165238 255 0 0
-0.296544 -0.023369 0.135013 76 153 0
-0.441230 -0.046310 0.232180 204 51 127
0.755675 -0.502847 0.254386 153 0 76
0.728847 -0.449483 0.167678 76 0 153
0.066616 -0.068015 0.152734 153 0 76
0.365760 0.341540 0.524716 153 76 0
0.177502 0.522862 0.135461 255 0 0
-0.685121 -0.018482 0.200022 76 153 0
-0.109684 0.141571 0.232180 204 51 127
0.336929 -0.351627 0.513781 153 0 76
-0.243208 0.522862 0.021775 255 0 0
0.548789 -0.381202 -0.204708 255 0 0
0.670840 -0.068015 -0.279561 153 0 76
0.736478 -0.513879 -0.461671 76 0 153
-0.411457 -0.268780 0.236657 204 51 127
-0.268795 -0.428306 -0.327135 255 0 0
-0.703694 0.249628 0.022634 153 76 0
0.684060 0.487109 -0.016844 255 0 0
-0.504507 0.487109 -0.424277 255 0 0
0.560604 -0.094877 -0.007549 153 0 76
-0.703694 0.304429 -0.413556 153 76 0
-0.328750 0.522862 0.251613 255 0 0
0.481822 0.522862 0.246968 255 0 0
-0.036427 -0.506178 -0.327135 0 0 255
0.755709 -0.027493 -0.188691 76 0 153
-0.153372 0.487109 -0.378078 255 0 0
-0.655309 0.487109 -0.425805 255 0 0
-0.615970 0.522862 -0.335394 255 0 0
-0.775429 0.508561 0.233602 255 0 0
0.728847 0.330118 0.064779 76 0 153
0.446063 -0.068015 -0.026134 153 0 76
-0.607233 -0.023369 -0.061619 76 153 0
-0.033917 0.522862 0.034891 255 0 0
-0.703694 -0.365816 -0.191222 153 76 0
0.233868 -0.068015 -0.277431 153 0 76
0.755709 0.252691 0.113110 76 0 153
-0.503030 0.487109 0.196089 255 0 0
0.729397 -0.551546 -0.161589 76 0 153
0.362895 -0.381202 -0.066554 255 0 0
0.259772 -0.172626 0.577310 153 76 0
-0.537666 0.487109 -0.116465 255 0 0
0.349975 0.276069 0.509584 153 76 0
0.584154 -0.443880 0.205381 76 0 153
-0.082562 0.522862 0.099552 255 0 0
0.755709 -0.086491 0.161501 76 0 153
0.728847 0.477628 -0.380156 76 0 153
0.093078 0.505017 -0.271241 255 0 0
-0.739285 -0.426197 -0.244284 76 0 153
-0.703694 0.461308 0.096542 153 76 0
-0.107768 0.487109 -0.199122 255 0 0
0.192161 -0.379256 0.629536 153 0 76
-0.444780 -0.427742 0.268504 153 0 76
0.548702 -0.146866 0.365974 153 76 0
-0.095878 -0.381202 -0.360455 255 0 0
-0.748577 -0.542331 -0.313176 76 0 153
-0.098785 -0.446527 -0.353997 0 0 255
0.007959 0.522862 -0.366252 255 0 0
-0.730556 -0.170372 -0.151296 153 76 0
0.387263 -0.068015 -0.390741 153 0 76
-0.349785 -0.408064 -0.386515 255 0 0
0.145024 -0.381202 0.134365 255 0 0
-0.703694 0.152470 0.020006 153 76 0
-0.701562 0.029122 0.234251 153 76 0
-0.110532 0.376727 0.227703 76 0 153
0.135983 -0.551557 0.262055 153 0 76
-0.596186 -0.214711 0.236657 204 51 127
0.456568 0.522862 -0.123183 255 0 0
-0.573494 -0.491102 0.280862 153 0 76
-0.454323 -0.420269 -0.353997 0 0 255
-0.262399 -0.467076 0.272537 153 0 76
0.225469 -0.381202 -0.309735 255 0 0
0.195679 0.367841 0.619834 153 0 76
-0.681648 0.487109 0.133740 255 0 0
-0.703694 -0.144451 0.085621 153 76 0
-0.730556 0.287199 0.039376 153 76 0
-0.086041 0.487109 -0.097704 255 0 0
-0.703694 -0.085186 -0.025753 153 76 0
-0.194034 0.200592 0.236657 204 51 127
-0.568819 0.487109 0.182234 255 0 0
0.755709 0.103393 0.060155 76 0 153
