-0.190332 -0.582336 0.027923 0.000000 0.500000 0.500000
0.549320 0.256138 0.043612 0.600000 0.000000 0.300000
0.159532 0.420798 0.043612 0.600000 0.000000 0.300000
0.266953 -0.390435 0.043429 0.300000 0.600000 0.000000
0.343642 0.237291 0.043612 0.600000 0.000000 0.300000
0.729427 -0.303341 0.027362 0.300000 0.600000 0.000000
-0.320584 -0.558074 -0.036390 0.000000 0.500000 0.500000
-0.537449 0.186562 -0.003840 0.300000 0.600000 0.000000
0.752495 0.514243 0.043373 0.300000 0.600000 0.000000
0.710470 -0.202723 0.024420 0.300000 0.600000 0.000000
-0.282806 -0.578066 0.068005 0.000000 0.500000 0.500000
0.648087 0.297518 0.015012 0.300000 0.600000 0.000000
-0.281776 -0.333823 -0.024472 0.300000 0.600000 0.000000
-0.258773 0.618810 0.020205 0.300000 0.600000 0.000000
0.556886 -0.053692 0.043612 0.600000 0.000000 0.300000
-0.427812 -0.226408 0.043612 0.600000 0.000000 0.300000
0.586827 0.509357 0.043612 0.600000 0.000000 0.300000
-0.790418 -0.321890 0.030034 0.300000 0.600000 0.000000
-0.609787 0.455918 0.004588 0.300000 0.600000 0.000000
-0.011164 -0.563123 -0.144557 0.000000 0.500000 0.500000
0.042360 0.498994 -0.030774 0.300000 0.600000 0.000000
-0.025595 -0.385938 0.043509 0.300000 0.600000 0.000000
-0.088073 -0.558712 -0.167406 0.000000 0.500000 0.500000
-0.346736 0.463964 -0.020351 0.300000 0.600000 0.000000
-0.217182 -0.555157 -0.247106 0.000000 0.500000 0.500000
0.007856 0.329708 0.043492 0.600000 0.000000 0.300000
-0.501596 -0.251339 -0.007427 0.300000 0.600000 0.000000
-0.320417 0.603015 -0.021978 0.300000 0.600000 0.000000
0.224012 -0.582336 -0.150319 0.000000 0.500000 0.500000
0.535203 0.606459 0.043306 0.300000 0.600000 0.000000
-0.194026 0.191629 -0.028268 0.300000 0.600000 0.000000
0.015277 0.402928 -0.031159 0.300000 0.600000 0.000000
-0.108374 0.294483 -0.030456 0.300000 0.600000 0.000000
0.196585 0.136974 -0.026291 0.300000 0.600000 0.000000
-0.260124 -0.582336 -0.188087 0.000000 0.500000 0.500000
0.574597 -0.000500 0.043612 0.600000 0.000000 0.300000
-0.442877 -0.309744 -0.013216 0.300000 0.600000 0.000000
-0.062504 0.607505 -0.029599 0.300000 0.600000 0.000000
0.031291 -0.086421 -0.112176 0.500000 0.000000 0.500000
0.064527 0.570111 0.043612 0.300000 0.600000 0.000000
0.635194 0.494925 0.013346 0.300000 0.600000 0.000000
-0.229456 0.196639 -0.026754 0.300000 0.600000 0.000000
-0.362314 -0.030959 -0.019240 0.300000 0.600000 0.000000
0.045233 -0.559215 -0.174948 0.000000 0.500000 0.500000
0.145969 0.278981 0.043612 0.600000 0.000000 0.300000
0.312402 0.206058 0.043612 0.600000 0.000000 0.300000
-0.726876 -0.180586 0.020015 0.300000 0.600000 0.000000
-0.798246 0.513215 0.043335 0.300000 0.600000 0.000000
0.764369 -0.336052 0.032825 0.300000 0.600000 0.000000
-0.790384 -0.176329 0.043612 0.300000 0.600000 0.000000
-0.761019 -0.168242 0.043612 0.600000 0.000000 0.300000
0.723439 -0.204684 0.043612 0.300000 0.600000 0.000000
-0.352746 -0.226264 0.043612 0.600000 0.000000 0.300000
-0.526467 0.036450 -0.004939 0.300000 0.600000 0.000000
0.066046 -0.577883 -0.138100 0.000000 0.500000 0.500000
-0.160422 -0.368480 -0.076018 0.500000 0.000000 0.500000
0.661757 0.132275 0.016891 0.300000 0.600000 0.000000
-0.673727 0.616649 0.016648 0.300000 0.600000 0.000000
0.113499 0.497189 -0.029587 0.300000 0.600000 0.000000
0.494146 -0.194007 -0.003801 0.300000 0.600000 0.000000
0.021987 0.539008 0.043612 0.600000 0.000000 0.300000
-0.379404 0.325765 0.043406 0.600000 0.000000 0.300000
-0.263223 0.306969 -0.025310 0.300000 0.600000 0.000000
0.077178 -0.508367 -0.112165 0.500000 0.000000 0.500000
-0.717731 -0.166647 0.018662 0.300000 0.600000 0.000000
0.182261 0.108162 0.043612 0.600000 0.000000 0.300000
0.196683 -0.554153 0.035973 0.000000 0.500000 0.500000
-0.212720 0.146222 0.043612 0.600000 0.000000 0.300000
-0.160585 -0.181937 -0.073382 0.500000 0.000000 0.500000
-0.570937 0.040848 0.043612 0.600000 0.000000 0.300000
-0.077240 -0.558778 0.071196 0.000000 0.500000 0.500000
-0.649976 -0.368137 0.009619 0.300000 0.600000 0.000000
-0.703604 0.575500 0.043132 0.300000 0.600000 0.000000
-0.508892 0.193407 -0.006698 0.300000 0.600000 0.000000
-0.371762 -0.379454 -0.018560 0.300000 0.600000 0.000000
0.164041 0.223867 -0.027682 0.300000 0.600000 0.000000
-0.069968 0.005536 -0.112176 0.500000 0.000000 0.500000
-0.070895 -0.141001 -0.112176 0.500000 0.000000 0.500000
-0.041864 0.000194 -0.112176 0.500000 0.000000 0.500000
-0.052204 -0.061332 -0.112176 0.500000 0.000000 0.500000
0.210648 -0.579075 -0.272784 0.000000 0.500000 0.500000
-0.455918 0.152542 0.043612 0.600000 0.000000 0.300000
0.193213 -0.578712 -0.130604 0.000000 0.500000 0.500000
-0.345156 -0.327894 -0.020464 0.300000 0.600000 0.000000
0.454372 0.581226 -0.007779 0.300000 0.600000 0.000000
-0.714856 -0.062714 0.018239 0.300000 0.600000 0.000000
-0.254777 -0.558884 -0.248821 0.000000 0.500000 0.500000
-0.580657 0.223671 0.043612 0.600000 0.000000 0.300000
-0.145400 0.070083 0.043612 0.600000 0.000000 0.300000
0.501982 -0.369059 -0.003016 0.300000 0.600000 0.000000
-0.532855 -0.070406 0.043612 0.600000 0.000000 0.300000
0.790430 0.512931 0.043172 0.300000 0.600000 0.000000
-0.149422 -0.259843 0.043612 0.600000 0.000000 0.300000
-0.006823 -0.559061 -0.063807 0.000000 0.500000 0.500000
0.693791 -0.359531 0.021771 0.300000 0.600000 0.000000
-0.651521 -0.292351 0.043612 0.600000 0.000000 0.300000
0.079455 -0.558755 -0.232803 0.000000 0.500000 0.500000
-0.809337 0.280977 0.043612 0.300000 0.600000 0.000000
0.184496 -0.578713 -0.032355 0.000000 0.500000 0.500000
-0.210292 -0.578468 -0.207475 0.000000 0.500000 0.500000
0.473269 -0.276787 -0.005889 0.300000 0.600000 0.000000
0.221215 0.378508 0.043612 0.600000 0.000000 0.300000
-0.268017 -0.119440 0.043612 0.600000 0.000000 0.300000
0.092689 -0.575800 0.008369 0.000000 0.500000 0.500000
-0.273371 -0.577714 0.014989 0.000000 0.500000 0.500000
0.610590 0.276064 0.043612 0.600000 0.000000 0.300000
-0.376508 -0.388195 0.043469 0.300000 0.600000 0.000000
-0.302242 -0.405393 -0.006407 0.300000 0.600000 0.000000
-0.113685 -0.199393 -0.112175 0.500000 0.000000 0.500000
-0.510558 -0.384245 0.043206 0.300000 0.600000 0.000000
-0.048155 0.481789 0.042611 0.600000 0.000000 0.300000
0.346814 0.377712 0.043612 0.600000 0.000000 0.300000
-0.122578 -0.426551 -0.112170 0.500000 0.000000 0.500000
0.788538 0.098463 0.043523 0.300000 0.600000 0.000000
-0.111383 -0.582168 -0.257169 0.000000 0.500000 0.500000
-0.097340 -0.578594 -0.168878 0.000000 0.500000 0.500000
-0.666008 -0.122337 0.043612 0.600000 0.000000 0.300000
0.080204 -0.126355 -0.112170 0.500000 0.000000 0.500000
0.308905 0.284583 0.043612 0.600000 0.000000 0.300000
-0.265561 -0.141499 -0.025210 0.300000 0.600000 0.000000
-0.272619 -0.173510 0.043612 0.600000 0.000000 0.300000
-0.203205 0.457844 0.042612 0.600000 0.000000 0.300000
0.570297 -0.206560 0.005105 0.300000 0.600000 0.000000
0.249454 -0.109023 0.042612 0.600000 0.000000 0.300000
0.052375 0.411535 -0.030631 0.300000 0.600000 0.000000
-0.131110 -0.174036 -0.112158 0.500000 0.000000 0.500000
0.074883 0.188435 0.043612 0.600000 0.000000 0.300000
0.245848 0.000498 0.043612 0.600000 0.000000 0.300000
-0.048277 0.440587 -0.031311 0.300000 0.600000 0.000000
-0.082548 0.072317 -0.112176 0.500000 0.000000 0.500000
-0.035879 0.247646 0.042686 0.600000 0.000000 0.300000
0.026757 0.128063 -0.031341 0.300000 0.600000 0.000000
0.126096 -0.020313 0.042639 0.600000 0.000000 0.300000
-0.559302 0.063425 -0.001598 0.300000 0.600000 0.000000
-0.622134 0.510609 0.042912 0.600000 0.000000 0.300000
0.462083 0.371242 0.043612 0.600000 0.000000 0.300000
0.614117 0.168869 0.043612 0.600000 0.000000 0.300000
0.289604 0.492751 -0.021311 0.300000 0.600000 0.000000
0.035024 0.561937 0.043612 0.300000 0.600000 0.000000
-0.153563 -0.578099 0.090857 0.000000 0.500000 0.500000
0.640777 0.387465 0.014065 0.300000 0.600000 0.000000
-0.292666 -0.582336 -0.174164 0.000000 0.500000 0.500000
-0.000929 -0.056763 -0.112176 0.500000 0.000000 0.500000
-0.324737 -0.565932 -0.123165 0.000000 0.500000 0.500000
0.494014 0.431933 0.043612 0.600000 0.000000 0.300000
0.565074 0.578408 0.043612 0.300000 0.600000 0.000000
-0.460318 -0.405488 0.028873 0.300000 0.600000 0.000000
-0.594959 -0.281782 0.002677 0.300000 0.600000 0.000000
-0.117320 0.108695 -0.082981 0.500000 0.000000 0.500000
-0.805318 0.231582 0.043612 0.300000 0.600000 0.000000
-0.469244 -0.038657 0.043612 0.600000 0.000000 0.300000
0.280957 -0.565573 -0.079737 0.000000 0.500000 0.500000
-0.111227 -0.432422 -0.021326 0.500000 0.000000 0.500000
0.029322 -0.266254 -0.112176 0.500000 0.000000 0.500000
0.344986 0.310567 0.043612 0.600000 0.000000 0.300000
-0.079369 -0.582336 0.088907 0.000000 0.500000 0.500000
0.454051 0.396074 -0.007811 0.300000 0.600000 0.000000
-0.267068 -0.558778 -0.187118 0.000000 0.500000 0.500000
-0.461049 0.083512 0.043612 0.600000 0.000000 0.300000
0.105092 -0.569909 0.127190 0.000000 0.500000 0.500000
-0.641767 -0.383665 0.008606 0.300000 0.600000 0.000000
-0.275283 -0.555156 -0.244405 0.000000 0.500000 0.500000
0.324760 0.417815 -0.018803 0.300000 0.600000 0.000000
0.758704 -0.266127 0.043279 0.300000 0.600000 0.000000
-0.575349 0.250001 0.000188 0.300000 0.600000 0.000000
-0.365265 -0.125683 0.043612 0.600000 0.000000 0.300000
0.692685 0.120159 0.021588 0.300000 0.600000 0.000000
-0.641964 0.485294 0.008585 0.300000 0.600000 0.000000
-0.571571 -0.313203 0.043612 0.300000 0.600000 0.000000
0.267071 0.409409 0.043612 0.600000 0.000000 0.300000
0.482957 -0.093355 -0.004920 0.300000 0.600000 0.000000
0.071794 0.060635 0.043253 0.600000 0.000000 0.300000
0.181731 0.120315 -0.026926 0.300000 0.600000 0.000000
-0.081882 -0.461784 -0.021240 0.500000 0.000000 0.500000
0.700609 -0.222275 0.043612 0.600000 0.000000 0.300000
0.207044 -0.578430 -0.225909 0.000000 0.500000 0.500000
-0.294634 0.045732 -0.023821 0.300000 0.600000 0.000000
-0.103025 -0.314357 0.043612 0.300000 0.600000 0.000000
-0.288690 -0.582336 -0.025257 0.000000 0.500000 0.500000
0.101313 -0.554688 0.102651 0.000000 0.500000 0.500000
-0.415527 0.527055 0.042612 0.600000 0.000000 0.300000
0.269799 -0.555546 -0.138053 0.000000 0.500000 0.500000
0.218017 -0.181576 0.042612 0.600000 0.000000 0.300000
0.758245 0.360026 0.043612 0.300000 0.600000 0.000000
-0.428407 0.324324 0.043612 0.600000 0.000000 0.300000
-0.011370 0.526556 0.043138 0.600000 0.000000 0.300000
0.163929 -0.039168 -0.027687 0.300000 0.600000 0.000000
0.637856 0.252055 0.013689 0.300000 0.600000 0.000000
0.218022 0.480759 0.043612 0.600000 0.000000 0.300000
-0.072245 -0.559912 -0.104383 0.000000 0.500000 0.500000
-0.733863 0.470921 0.043612 0.600000 0.000000 0.300000
0.716078 0.037654 0.043612 0.600000 0.000000 0.300000
-0.169669 -0.582323 0.112808 0.000000 0.500000 0.500000
-0.837937 -0.162859 0.037800 0.300000 0.600000 0.000000
0.468713 0.481660 0.043612 0.600000 0.000000 0.300000
0.283098 -0.030418 -0.021769 0.300000 0.600000 0.000000
-0.092557 -0.014957 0.043612 0.600000 0.000000 0.300000
-0.306878 -0.201575 -0.023095 0.300000 0.600000 0.000000
0.190365 -0.558778 -0.057588 0.000000 0.500000 0.500000
0.250853 -0.398480 -0.021956 0.300000 0.600000 0.000000
0.599744 0.323504 0.008776 0.300000 0.600000 0.000000
0.522820 -0.333549 -0.000820 0.300000 0.600000 0.000000
0.038053 -0.373511 0.043481 0.300000 0.600000 0.000000
-0.791849 0.402568 0.043453 0.300000 0.600000 0.000000
-0.357887 0.613558 0.042621 0.300000 0.600000 0.000000
-0.318364 0.389615 -0.022347 0.300000 0.600000 0.000000
-0.292456 0.194951 0.043612 0.600000 0.000000 0.300000
-0.367427 -0.217652 -0.018876 0.300000 0.600000 0.000000
-0.509477 -0.180412 0.043612 0.600000 0.000000 0.300000
0.621037 0.008788 0.011521 0.300000 0.600000 0.000000
-0.609471 0.386512 0.004547 0.300000 0.600000 0.000000
-0.846107 0.225353 0.041876 0.300000 0.600000 0.000000
-0.434503 0.253844 0.043612 0.600000 0.000000 0.300000
-0.105722 -0.579455 -0.007194 0.000000 0.500000 0.500000
-0.297684 -0.027969 0.043612 0.600000 0.000000 0.300000
0.471238 0.618577 0.019380 0.300000 0.600000 0.000000
-0.625929 0.323629 0.043612 0.600000 0.000000 0.300000
0.022739 -0.451894 -0.112176 0.500000 0.000000 0.500000
0.759878 0.496984 0.032115 0.300000 0.600000 0.000000
-0.370312 0.019399 0.043612 0.600000 0.000000 0.300000
-0.219741 -0.582336 -0.168269 0.000000 0.500000 0.500000
-0.080633 -0.554570 -0.194056 0.000000 0.500000 0.500000
0.525494 0.234450 0.043612 0.600000 0.000000 0.300000
-0.486984 0.194053 0.043612 0.600000 0.000000 0.300000
0.179304 -0.335768 -0.027030 0.300000 0.600000 0.000000
-0.283383 -0.555282 -0.260063 0.000000 0.500000 0.500000
0.267427 0.612941 0.042919 0.300000 0.600000 0.000000
0.011250 -0.382936 -0.112176 0.500000 0.000000 0.500000
0.648280 0.224779 0.015039 0.300000 0.600000 0.000000
-0.339447 0.082367 -0.020871 0.300000 0.600000 0.000000
0.635022 -0.345948 0.042976 0.300000 0.600000 0.000000
0.116190 -0.439679 -0.051591 0.500000 0.000000 0.500000
0.108795 -0.120952 0.042612 0.600000 0.000000 0.300000
0.215282 0.212005 0.043612 0.600000 0.000000 0.300000
-0.688206 -0.215462 0.043612 0.600000 0.000000 0.300000
-0.062328 -0.314615 0.043612 0.300000 0.600000 0.000000
-0.045073 -0.578370 0.038539 0.000000 0.500000 0.500000
0.447430 0.327055 0.043612 0.600000 0.000000 0.300000
-0.107810 0.470542 -0.030464 0.300000 0.600000 0.000000
0.758825 0.475505 0.031948 0.300000 0.600000 0.000000
-0.172667 0.099797 -0.032778 0.500000 0.000000 0.500000
-0.733895 0.111863 0.043612 0.600000 0.000000 0.300000
-0.003023 -0.567126 -0.227970 0.000000 0.500000 0.500000
0.262334 -0.190115 0.042612 0.600000 0.000000 0.300000
-0.625015 0.173523 0.006507 0.300000 0.600000 0.000000
-0.787997 0.217581 0.029651 0.300000 0.600000 0.000000
0.471898 0.099547 -0.006026 0.300000 0.600000 0.000000
-0.055232 -0.405607 0.019547 0.300000 0.600000 0.000000
0.469382 -0.320827 -0.006278 0.300000 0.600000 0.000000
-0.159751 -0.444388 -0.046534 0.500000 0.000000 0.500000
-0.128258 -0.558778 -0.203989 0.000000 0.500000 0.500000
-0.089493 -0.571362 0.136317 0.000000 0.500000 0.500000
-0.123840 0.504225 0.042612 0.600000 0.000000 0.300000
-0.170793 0.588667 -0.029177 0.300000 0.600000 0.000000
0.411211 -0.186109 -0.012084 0.300000 0.600000 0.000000
0.134063 0.096581 -0.032575 0.300000 0.600000 0.000000
0.242291 0.264875 -0.024263 0.300000 0.600000 0.000000
0.015686 0.191514 -0.031153 0.300000 0.600000 0.000000
-0.127347 -0.558778 -0.049839 0.000000 0.500000 0.500000
0.414497 -0.266950 -0.011765 0.300000 0.600000 0.000000
0.343543 -0.273012 0.042612 0.600000 0.000000 0.300000
-0.157405 -0.568242 0.137239 0.000000 0.500000 0.500000
-0.702082 0.499035 0.043612 0.600000 0.000000 0.300000
0.188189 -0.578712 -0.070678 0.000000 0.500000 0.500000
-0.037319 0.387031 0.042660 0.600000 0.000000 0.300000
-0.319796 -0.303439 -0.022249 0.300000 0.600000 0.000000
-0.534685 -0.020737 -0.004117 0.300000 0.600000 0.000000
0.183403 -0.582336 -0.199798 0.000000 0.500000 0.500000
-0.172524 -0.335363 -0.035453 0.500000 0.000000 0.500000
0.150097 -0.578712 0.044365 0.000000 0.500000 0.500000
0.611240 0.184085 0.010258 0.300000 0.600000 0.000000
0.166805 0.145629 -0.027564 0.300000 0.600000 0.000000
-0.417085 0.017891 0.043612 0.600000 0.000000 0.300000
0.232884 -0.229893 0.042612 0.600000 0.000000 0.300000
0.350352 0.580600 -0.016978 0.300000 0.600000 0.000000
0.624398 0.477844 0.011954 0.300000 0.600000 0.000000
0.637304 0.202430 0.043612 0.600000 0.000000 0.300000
0.208431 -0.116443 0.042612 0.600000 0.000000 0.300000
-0.092334 -0.412423 -0.006145 0.300000 0.600000 0.000000
-0.170460 -0.318595 -0.037157 0.500000 0.000000 0.500000
-0.630062 -0.368721 0.007116 0.300000 0.600000 0.000000
-0.162687 -0.369200 0.043610 0.300000 0.600000 0.000000
-0.835207 -0.273563 0.037233 0.300000 0.600000 0.000000
-0.328723 -0.313261 0.043612 0.300000 0.600000 0.000000
-0.677457 -0.307374 0.013159 0.300000 0.600000 0.000000
0.656060 0.039989 0.043612 0.600000 0.000000 0.300000
0.225744 0.463160 0.043612 0.600000 0.000000 0.300000
-0.754346 0.001670 0.024465 0.300000 0.600000 0.000000
0.092070 0.609099 -0.029618 0.300000 0.600000 0.000000
0.162574 0.120989 -0.027745 0.300000 0.600000 0.000000
-0.073400 -0.554568 -0.252997 0.000000 0.500000 0.500000
-0.031004 0.145755 0.043266 0.600000 0.000000 0.300000
-0.190456 -0.577879 -0.012903 0.000000 0.500000 0.500000
0.297586 0.208311 -0.020741 0.300000 0.600000 0.000000
-0.457849 0.364803 -0.011802 0.300000 0.600000 0.000000
0.401570 -0.399522 -0.009143 0.300000 0.600000 0.000000
-0.639456 -0.317826 0.008261 0.300000 0.600000 0.000000
-0.006690 0.452760 -0.031444 0.300000 0.600000 0.000000
-0.729305 0.449909 0.020433 0.300000 0.600000 0.000000
0.042604 -0.577848 0.024421 0.000000 0.500000 0.500000
-0.618565 -0.135494 0.043612 0.600000 0.000000 0.300000
0.415152 0.238693 0.043612 0.600000 0.000000 0.300000
0.643983 0.617954 0.020552 0.300000 0.600000 0.000000
0.695888 0.032388 0.022116 0.300000 0.600000 0.000000
-0.366818 0.043400 0.043612 0.600000 0.000000 0.300000
-0.232173 0.008382 0.043612 0.600000 0.000000 0.300000
0.579433 -0.049946 0.043612 0.600000 0.000000 0.300000
0.619464 0.075506 0.043612 0.600000 0.000000 0.300000
0.433559 -0.195327 0.042705 0.600000 0.000000 0.300000
-0.655057 0.222897 0.043612 0.600000 0.000000 0.300000
-0.384725 -0.012350 0.043612 0.600000 0.000000 0.300000
-0.017747 -0.031437 -0.112176 0.500000 0.000000 0.500000
0.042196 0.521872 0.043612 0.600000 0.000000 0.300000
0.613178 -0.076091 0.043612 0.600000 0.000000 0.300000
-0.254422 -0.568661 -0.259932 0.000000 0.500000 0.500000
-0.142641 -0.234692 -0.112040 0.500000 0.000000 0.500000
-0.176757 -0.139462 -0.033141 0.500000 0.000000 0.500000
-0.629783 -0.155379 0.043612 0.600000 0.000000 0.300000
-0.594220 0.520280 0.042662 0.600000 0.000000 0.300000
-0.028815 -0.321877 0.043074 0.300000 0.600000 0.000000
-0.421272 0.565848 -0.014998 0.300000 0.600000 0.000000
0.077618 -0.315692 -0.112171 0.500000 0.000000 0.500000
0.359233 -0.369572 -0.016341 0.300000 0.600000 0.000000
0.005782 0.306939 -0.031295 0.300000 0.600000 0.000000
0.291973 0.120716 -0.021142 0.300000 0.600000 0.000000
-0.784105 0.319221 0.029036 0.300000 0.600000 0.000000
0.724675 0.594729 0.026646 0.300000 0.600000 0.000000
0.469421 0.252144 0.043612 0.600000 0.000000 0.300000
-0.665533 -0.173090 0.011622 0.300000 0.600000 0.000000
-0.754423 -0.258922 0.024478 0.300000 0.600000 0.000000
-0.005386 0.076223 0.042993 0.600000 0.000000 0.300000
-0.565938 -0.255020 0.043612 0.600000 0.000000 0.300000
0.002711 -0.570968 -0.157060 0.000000 0.500000 0.500000
-0.169529 -0.151563 -0.038751 0.500000 0.000000 0.500000
-0.044104 -0.343654 0.043355 0.300000 0.600000 0.000000
0.243679 0.570689 -0.024194 0.300000 0.600000 0.000000
0.629681 0.237749 0.012635 0.300000 0.600000 0.000000
-0.555000 0.585871 0.043039 0.300000 0.600000 0.000000
-0.234367 -0.554562 -0.040149 0.000000 0.500000 0.500000
-0.496211 0.346074 -0.007966 0.300000 0.600000 0.000000
0.784458 -0.027570 0.043551 0.300000 0.600000 0.000000
0.480486 0.021125 -0.005167 0.300000 0.600000 0.000000
0.209967 -0.005341 -0.025718 0.300000 0.600000 0.000000
0.312527 -0.307017 -0.019676 0.300000 0.600000 0.000000
-0.558284 0.368617 -0.001704 0.300000 0.600000 0.000000
0.712579 -0.082632 0.043612 0.600000 0.000000 0.300000
0.298533 -0.191120 0.042612 0.600000 0.000000 0.300000
-0.274250 -0.348319 0.043612 0.300000 0.600000 0.000000
0.069969 -0.554992 0.096432 0.000000 0.500000 0.500000
-0.027315 0.408968 0.042844 0.600000 0.000000 0.300000
0.703894 0.155602 0.023382 0.300000 0.600000 0.000000
0.093743 -0.551126 -0.000084 0.000000 0.500000 0.500000
0.100707 0.399318 -0.029895 0.300000 0.600000 0.000000
0.086501 -0.383196 0.043558 0.300000 0.600000 0.000000
-0.143500 -0.211883 -0.112031 0.500000 0.000000 0.500000
-0.466631 -0.296306 -0.010924 0.300000 0.600000 0.000000
-0.137892 0.377078 -0.030010 0.300000 0.600000 0.000000
-0.006903 0.286339 -0.031445 0.300000 0.600000 0.000000
0.098275 0.593385 -0.029938 0.300000 0.600000 0.000000
-0.746549 0.293418 0.023234 0.300000 0.600000 0.000000
0.624890 0.273633 0.012017 0.300000 0.600000 0.000000
0.175138 -0.558778 -0.053056 0.000000 0.500000 0.500000
-0.286136 -0.555154 -0.094618 0.000000 0.500000 0.500000
0.140714 0.293323 0.043612 0.600000 0.000000 0.300000
-0.704923 0.325078 0.043612 0.600000 0.000000 0.300000
-0.075182 -0.373031 0.043609 0.300000 0.600000 0.000000
-0.283079 -0.572915 -0.255026 0.000000 0.500000 0.500000
0.133370 -0.558778 -0.180412 0.000000 0.500000 0.500000
-0.365592 0.618817 0.012918 0.300000 0.600000 0.000000
-0.625365 0.542370 0.006549 0.300000 0.600000 0.000000
0.631479 0.020971 0.043612 0.600000 0.000000 0.300000
-0.549178 -0.017670 0.043612 0.600000 0.000000 0.300000
0.265198 -0.145561 -0.022977 0.300000 0.600000 0.000000
0.113739 -0.581919 -0.264447 0.000000 0.500000 0.500000
-0.296021 -0.574462 0.054413 0.000000 0.500000 0.500000
0.363826 -0.139428 -0.016007 0.300000 0.600000 0.000000
-0.457688 0.040532 -0.011818 0.300000 0.600000 0.000000
0.036831 -0.568519 0.126736 0.000000 0.500000 0.500000
0.115520 0.093538 -0.080074 0.500000 0.000000 0.500000
-0.295417 -0.576441 0.000140 0.000000 0.500000 0.500000
0.754920 -0.330391 0.043304 0.300000 0.600000 0.000000
0.170766 -0.578936 0.136461 0.000000 0.500000 0.500000
0.261300 -0.569571 -0.180266 0.000000 0.500000 0.500000
0.126882 -0.582336 0.016315 0.000000 0.500000 0.500000
0.640658 0.324558 0.014050 0.300000 0.600000 0.000000
-0.321245 0.548123 0.042688 0.300000 0.600000 0.000000
0.783294 0.461027 0.035842 0.300000 0.600000 0.000000
-0.688725 0.331955 0.014612 0.300000 0.600000 0.000000
0.407837 0.190773 -0.012401 0.300000 0.600000 0.000000
0.187340 -0.558651 -0.242731 0.000000 0.500000 0.500000
-0.203497 -0.558778 0.023683 0.000000 0.500000 0.500000
-0.533348 0.307023 -0.004251 0.300000 0.600000 0.000000
-0.588981 0.592275 0.043145 0.300000 0.600000 0.000000
-0.237663 -0.376022 -0.026400 0.300000 0.600000 0.000000
-0.111704 0.305787 0.042612 0.600000 0.000000 0.300000
-0.146207 -0.204033 0.043612 0.600000 0.000000 0.300000
-0.304160 -0.564939 -0.112866 0.000000 0.500000 0.500000
0.122143 0.108561 0.043612 0.600000 0.000000 0.300000
0.064784 -0.582336 -0.216883 0.000000 0.500000 0.500000
-0.171079 -0.582209 -0.092876 0.000000 0.500000 0.500000
-0.086870 -0.040163 0.043612 0.600000 0.000000 0.300000
-0.520537 0.061974 -0.005532 0.300000 0.600000 0.000000
0.014810 0.045827 -0.112176 0.500000 0.000000 0.500000
-0.801395 0.323314 0.043612 0.300000 0.600000 0.000000
-0.444602 0.522143 -0.013056 0.300000 0.600000 0.000000
-0.311062 -0.560713 -0.272482 0.000000 0.500000 0.500000
-0.424153 0.073650 -0.014786 0.300000 0.600000 0.000000
0.095524 -0.572776 -0.274689 0.000000 0.500000 0.500000
-0.172733 -0.205938 -0.035339 0.500000 0.000000 0.500000
0.077998 -0.577788 -0.126529 0.000000 0.500000 0.500000
0.023248 -0.554346 -0.159772 0.000000 0.500000 0.500000
-0.584947 0.445544 0.043517 0.600000 0.000000 0.300000
0.066424 -0.582122 -0.012968 0.000000 0.500000 0.500000
0.628180 -0.276288 0.012442 0.300000 0.600000 0.000000
-0.052935 0.156937 -0.031244 0.300000 0.600000 0.000000
0.004103 -0.380045 0.043600 0.300000 0.600000 0.000000
-0.109662 -0.578406 -0.161041 0.000000 0.500000 0.500000
-0.167010 -0.578628 0.016302 0.000000 0.500000 0.500000
0.153798 -0.558778 0.056339 0.000000 0.500000 0.500000
0.266842 -0.582062 -0.136655 0.000000 0.500000 0.500000
-0.277303 0.057950 -0.024694 0.300000 0.600000 0.000000
-0.492560 -0.100490 0.043612 0.600000 0.000000 0.300000
0.197763 -0.095507 0.042612 0.600000 0.000000 0.300000
0.740943 0.489679 0.043585 0.300000 0.600000 0.000000
0.037118 -0.407362 0.003021 0.300000 0.600000 0.000000
0.415506 -0.142426 0.043325 0.600000 0.000000 0.300000
-0.104951 0.442188 0.042612 0.600000 0.000000 0.300000
-0.704810 0.547043 0.043111 0.300000 0.600000 0.000000
-0.714095 -0.144129 0.043612 0.600000 0.000000 0.300000
-0.004906 -0.039470 0.042634 0.600000 0.000000 0.300000
-0.829424 -0.061155 0.036229 0.300000 0.600000 0.000000
-0.129510 -0.143877 -0.112166 0.500000 0.000000 0.500000
-0.830598 -0.231422 0.043534 0.300000 0.600000 0.000000
0.160498 -0.554157 0.105044 0.000000 0.500000 0.500000
-0.391900 0.378333 0.042871 0.600000 0.000000 0.300000
-0.717596 0.143286 0.043612 0.600000 0.000000 0.300000
-0.078623 0.600018 0.043531 0.300000 0.600000 0.000000
0.751045 0.186827 0.043612 0.300000 0.600000 0.000000
0.123049 -0.085428 0.042612 0.600000 0.000000 0.300000
0.451698 0.310271 -0.008047 0.300000 0.600000 0.000000
0.726257 0.216538 0.043612 0.300000 0.600000 0.000000
-0.271799 0.012886 0.043612 0.600000 0.000000 0.300000
0.327387 0.618208 -0.005543 0.300000 0.600000 0.000000
-0.050670 -0.554822 0.031114 0.000000 0.500000 0.500000
-0.802374 0.283158 0.031923 0.300000 0.600000 0.000000
-0.043555 0.309269 0.042611 0.600000 0.000000 0.300000
-0.205271 -0.582335 -0.233877 0.000000 0.500000 0.500000
0.002266 0.021325 -0.112176 0.500000 0.000000 0.500000
-0.474782 0.525450 0.042612 0.600000 0.000000 0.300000
0.275176 -0.556916 -0.223452 0.000000 0.500000 0.500000
-0.130865 -0.559013 -0.249053 0.000000 0.500000 0.500000
0.338176 0.442109 0.043612 0.600000 0.000000 0.300000
-0.304253 -0.566915 -0.010014 0.000000 0.500000 0.500000
-0.325508 0.046903 0.043612 0.600000 0.000000 0.300000
0.622372 0.244876 0.043612 0.600000 0.000000 0.300000
0.198832 0.044651 -0.026195 0.300000 0.600000 0.000000
-0.566802 0.144811 -0.000789 0.300000 0.600000 0.000000
-0.801949 -0.003808 0.043612 0.300000 0.600000 0.000000
0.309012 0.097932 -0.019926 0.300000 0.600000 0.000000
-0.016968 0.609964 0.043246 0.300000 0.600000 0.000000
-0.063358 -0.131409 0.043612 0.600000 0.000000 0.300000
-0.299358 -0.563580 -0.257433 0.000000 0.500000 0.500000
0.461492 0.537168 -0.007067 0.300000 0.600000 0.000000
-0.615067 0.120004 0.005266 0.300000 0.600000 0.000000
0.149673 0.030615 -0.028229 0.300000 0.600000 0.000000
0.170035 -0.146082 0.042612 0.600000 0.000000 0.300000
-0.733104 0.206773 0.021053 0.300000 0.600000 0.000000
0.545054 0.039324 0.001841 0.300000 0.600000 0.000000
0.262790 0.085204 0.043612 0.600000 0.000000 0.300000
0.264564 0.301396 0.043612 0.600000 0.000000 0.300000
0.637859 -0.049608 0.013689 0.300000 0.600000 0.000000
0.285840 0.455574 -0.021580 0.300000 0.600000 0.000000
0.092313 -0.247423 -0.112036 0.500000 0.000000 0.500000
0.517552 0.323697 0.043612 0.600000 0.000000 0.300000
0.165016 -0.013927 0.043034 0.600000 0.000000 0.300000
-0.468764 0.269798 -0.010711 0.300000 0.600000 0.000000
-0.820556 0.452733 0.034803 0.300000 0.600000 0.000000
-0.771682 -0.228439 0.043612 0.600000 0.000000 0.300000
0.312796 0.476293 -0.019656 0.300000 0.600000 0.000000
-0.472317 0.019839 0.043612 0.600000 0.000000 0.300000
-0.151564 -0.453977 -0.029219 0.500000 0.000000 0.500000
-0.417833 0.597527 0.043232 0.300000 0.600000 0.000000
0.736128 0.008571 0.028378 0.300000 0.600000 0.000000
0.779306 0.398776 0.043586 0.300000 0.600000 0.000000
-0.833056 0.375654 0.036813 0.300000 0.600000 0.000000
0.480836 0.321988 -0.005132 0.300000 0.600000 0.000000
-0.718914 0.471019 0.018836 0.300000 0.600000 0.000000
-0.594262 -0.114964 0.002584 0.300000 0.600000 0.000000
0.560143 0.082945 0.003800 0.300000 0.600000 0.000000
0.353023 0.346364 0.043612 0.600000 0.000000 0.300000
-0.136172 0.542658 0.042611 0.600000 0.000000 0.300000
-0.617766 0.205325 0.043612 0.600000 0.000000 0.300000
-0.170223 -0.057050 0.043612 0.600000 0.000000 0.300000
-0.120869 -0.554160 -0.162956 0.000000 0.500000 0.500000
-0.174358 -0.582330 -0.024425 0.000000 0.500000 0.500000
-0.161951 -0.554399 -0.245479 0.000000 0.500000 0.500000
-0.029070 0.554161 0.042906 0.300000 0.600000 0.000000
0.374952 -0.092157 0.043582 0.600000 0.000000 0.300000
0.081196 0.618711 0.031059 0.300000 0.600000 0.000000
-0.228750 -0.578712 -0.144165 0.000000 0.500000 0.500000
0.502181 0.590150 -0.002989 0.300000 0.600000 0.000000
0.080652 0.120874 -0.034028 0.300000 0.600000 0.000000
0.430438 -0.171986 -0.010174 0.300000 0.600000 0.000000
-0.247947 0.112600 0.043612 0.600000 0.000000 0.300000
0.110249 -0.224185 -0.105020 0.500000 0.000000 0.500000
0.033745 0.282682 0.043612 0.600000 0.000000 0.300000
0.371495 -0.306059 0.042612 0.600000 0.000000 0.300000
-0.131551 -0.482597 -0.025543 0.500000 0.000000 0.500000
-0.140468 0.279914 -0.029964 0.300000 0.600000 0.000000
0.154785 -0.582334 0.098460 0.000000 0.500000 0.500000
-0.154630 0.343803 -0.029656 0.300000 0.600000 0.000000
0.596562 0.120030 0.043612 0.600000 0.000000 0.300000
0.111709 0.291856 -0.029636 0.300000 0.600000 0.000000
-0.009187 0.243748 -0.031456 0.300000 0.600000 0.000000
0.256997 0.237777 0.043612 0.600000 0.000000 0.300000
-0.830020 0.154655 0.043538 0.300000 0.600000 0.000000
-0.224510 -0.358087 -0.026966 0.300000 0.600000 0.000000
-0.053202 0.020342 -0.112176 0.500000 0.000000 0.500000
0.263960 -0.555271 0.032355 0.000000 0.500000 0.500000
0.691648 -0.393713 0.021537 0.300000 0.600000 0.000000
-0.208507 -0.558778 -0.222531 0.000000 0.500000 0.500000
0.125887 -0.558778 -0.223625 0.000000 0.500000 0.500000
0.664984 0.560644 0.017335 0.300000 0.600000 0.000000
0.138578 -0.577295 -0.273513 0.000000 0.500000 0.500000
-0.099266 -0.200947 -0.112176 0.500000 0.000000 0.500000
-0.035816 -0.170138 0.043202 0.600000 0.000000 0.300000
-0.094901 0.188359 -0.030647 0.300000 0.600000 0.000000
-0.030817 -0.485644 -0.112176 0.500000 0.000000 0.500000
-0.760655 -0.100335 0.043612 0.600000 0.000000 0.300000
0.638371 -0.169889 0.013755 0.300000 0.600000 0.000000
0.361898 -0.259694 -0.016148 0.300000 0.600000 0.000000
-0.269760 0.313907 0.042724 0.600000 0.000000 0.300000
0.727448 0.244659 0.043612 0.300000 0.600000 0.000000
0.206387 -0.554420 -0.247319 0.000000 0.500000 0.500000
-0.156936 -0.228731 -0.096968 0.500000 0.000000 0.500000
-0.220278 0.116013 -0.027147 0.300000 0.600000 0.000000
-0.133070 0.231045 0.042722 0.600000 0.000000 0.300000
0.423551 -0.402939 0.042372 0.300000 0.600000 0.000000
-0.257188 0.507886 0.042612 0.600000 0.000000 0.300000
-0.581699 0.466217 0.000915 0.300000 0.600000 0.000000
-0.586524 -0.008486 0.001552 0.300000 0.600000 0.000000
0.731448 -0.156850 0.043612 0.300000 0.600000 0.000000
-0.487668 -0.358741 0.043346 0.300000 0.600000 0.000000
-0.294748 -0.559434 -0.163303 0.000000 0.500000 0.500000
0.591960 -0.229653 0.007787 0.300000 0.600000 0.000000
0.623265 0.056651 0.043612 0.600000 0.000000 0.300000
-0.769563 0.010571 0.026834 0.300000 0.600000 0.000000
0.266014 0.170750 -0.022929 0.300000 0.600000 0.000000
0.407039 -0.182381 0.042721 0.600000 0.000000 0.300000
-0.036069 -0.405572 0.025252 0.300000 0.600000 0.000000
-0.238456 -0.337110 0.043612 0.300000 0.600000 0.000000
-0.408668 -0.135449 0.043612 0.600000 0.000000 0.300000
-0.229058 -0.578495 -0.081580 0.000000 0.500000 0.500000
0.030698 -0.418403 -0.010498 0.500000 0.000000 0.500000
0.051380 -0.577910 -0.192994 0.000000 0.500000 0.500000
0.765904 -0.086683 0.043612 0.300000 0.600000 0.000000
0.033726 -0.574719 -0.182798 0.000000 0.500000 0.500000
-0.429380 -0.251775 -0.014402 0.300000 0.600000 0.000000
0.152553 -0.320363 -0.028126 0.300000 0.600000 0.000000
0.586996 -0.148177 0.043612 0.600000 0.000000 0.300000
0.328280 0.570866 0.043612 0.300000 0.600000 0.000000
0.596233 0.226723 0.008324 0.300000 0.600000 0.000000
-0.080682 -0.555018 0.022329 0.000000 0.500000 0.500000
0.471256 0.155051 -0.006091 0.300000 0.600000 0.000000
-0.750775 0.272100 0.023901 0.300000 0.600000 0.000000
-0.488093 -0.020893 0.043612 0.600000 0.000000 0.300000
0.437724 -0.312406 -0.009445 0.300000 0.600000 0.000000
-0.105695 0.490493 -0.030494 0.300000 0.600000 0.000000
0.132706 0.054059 0.043604 0.600000 0.000000 0.300000
0.142482 0.219169 0.043612 0.600000 0.000000 0.300000
-0.474046 -0.001851 -0.010183 0.300000 0.600000 0.000000
-0.011515 0.180068 0.043148 0.600000 0.000000 0.300000
0.555288 -0.203166 0.043549 0.600000 0.000000 0.300000
-0.238742 0.058772 -0.026357 0.300000 0.600000 0.000000
-0.087890 0.449218 0.042612 0.600000 0.000000 0.300000
-0.466675 -0.264095 -0.010920 0.300000 0.600000 0.000000
0.175691 0.482340 -0.027184 0.300000 0.600000 0.000000
-0.416725 0.315023 -0.015334 0.300000 0.600000 0.000000
-0.594084 -0.205589 0.002560 0.300000 0.600000 0.000000
-0.547966 0.155884 -0.002782 0.300000 0.600000 0.000000
-0.293428 0.208373 -0.023892 0.300000 0.600000 0.000000
-0.248895 0.174610 -0.025922 0.300000 0.600000 0.000000
-0.171021 -0.545853 -0.031579 0.500000 0.000000 0.500000
0.213408 0.605385 -0.025277 0.300000 0.600000 0.000000
-0.306206 -0.554903 0.051824 0.000000 0.500000 0.500000
0.614060 0.226589 0.010621 0.300000 0.600000 0.000000
0.675136 0.113676 0.043612 0.600000 0.000000 0.300000
0.069916 0.308842 -0.030382 0.300000 0.600000 0.000000
-0.640029 -0.163398 0.008335 0.300000 0.600000 0.000000
-0.079446 -0.490827 -0.020654 0.500000 0.000000 0.500000
-0.508460 -0.189263 -0.006741 0.300000 0.600000 0.000000
0.781878 0.298981 0.043568 0.300000 0.600000 0.000000
-0.327234 -0.235827 -0.021737 0.300000 0.600000 0.000000
-0.236140 -0.582336 0.064444 0.000000 0.500000 0.500000
0.514002 0.264533 -0.001764 0.300000 0.600000 0.000000
0.247676 -0.554722 0.047278 0.000000 0.500000 0.500000
-0.283228 -0.122879 -0.024400 0.300000 0.600000 0.000000
0.173054 0.086156 0.043612 0.600000 0.000000 0.300000
0.656768 -0.073551 0.016205 0.300000 0.600000 0.000000
-0.252356 -0.582336 -0.078820 0.000000 0.500000 0.500000
0.502527 -0.405614 0.022705 0.300000 0.600000 0.000000
-0.314724 0.274661 -0.022598 0.300000 0.600000 0.000000
0.373449 0.320939 0.043612 0.600000 0.000000 0.300000
-0.217986 -0.403087 -0.021763 0.300000 0.600000 0.000000
-0.573658 -0.125220 -0.000005 0.300000 0.600000 0.000000
0.177884 -0.554154 -0.130829 0.000000 0.500000 0.500000
-0.269566 -0.272841 -0.025039 0.300000 0.600000 0.000000
0.400330 -0.268522 0.042612 0.600000 0.000000 0.300000
0.184977 -0.554153 -0.027253 0.000000 0.500000 0.500000
-0.587156 -0.160970 0.001637 0.300000 0.600000 0.000000
-0.177062 -0.058264 -0.032975 0.500000 0.000000 0.500000
0.675137 0.519701 0.043612 0.600000 0.000000 0.300000
-0.297090 0.191330 -0.023675 0.300000 0.600000 0.000000
0.626644 0.296713 0.012244 0.300000 0.600000 0.000000
0.450655 -0.372990 -0.008151 0.300000 0.600000 0.000000
-0.263681 0.481812 -0.025290 0.300000 0.600000 0.000000
0.704911 -0.118252 0.023542 0.300000 0.600000 0.000000
-0.323208 0.307693 0.043227 0.600000 0.000000 0.300000
-0.355999 -0.405625 0.020631 0.300000 0.600000 0.000000
0.153268 -0.578454 -0.228485 0.000000 0.500000 0.500000
-0.284520 -0.565155 0.124542 0.000000 0.500000 0.500000
-0.360617 0.618741 0.028202 0.300000 0.600000 0.000000
0.380645 0.551758 0.043612 0.300000 0.600000 0.000000
0.189174 -0.578328 -0.178867 0.000000 0.500000 0.500000
0.194979 -0.578685 -0.151787 0.000000 0.500000 0.500000
-0.761339 -0.053861 0.043612 0.600000 0.000000 0.300000
0.048219 -0.396181 -0.112176 0.500000 0.000000 0.500000
-0.629961 0.083564 0.043612 0.600000 0.000000 0.300000
-0.785683 0.365004 0.043566 0.300000 0.600000 0.000000
0.005222 -0.426880 -0.112176 0.500000 0.000000 0.500000
0.019399 -0.558704 -0.085000 0.000000 0.500000 0.500000
-0.540143 -0.390269 0.043098 0.300000 0.600000 0.000000
-0.161153 -0.558778 -0.089826 0.000000 0.500000 0.500000
0.306706 0.042400 0.043612 0.600000 0.000000 0.300000
-0.077551 -0.558778 -0.019940 0.000000 0.500000 0.500000
0.230112 0.074601 0.043612 0.600000 0.000000 0.300000
-0.353431 -0.022943 0.043612 0.600000 0.000000 0.300000
0.364594 0.446087 -0.015951 0.300000 0.600000 0.000000
-0.248253 -0.558778 0.054972 0.000000 0.500000 0.500000
0.005339 0.528592 -0.031301 0.300000 0.600000 0.000000
0.494607 -0.230130 -0.003755 0.300000 0.600000 0.000000
0.661349 -0.186831 0.043612 0.600000 0.000000 0.300000
-0.163009 -0.211219 -0.051721 0.500000 0.000000 0.500000
-0.443850 -0.346175 -0.013127 0.300000 0.600000 0.000000
0.612327 -0.223135 0.043612 0.600000 0.000000 0.300000
0.070898 0.347341 -0.030368 0.300000 0.600000 0.000000
0.611079 -0.181535 0.043612 0.600000 0.000000 0.300000
-0.231835 0.261994 -0.026652 0.300000 0.600000 0.000000
0.221140 0.271311 -0.025241 0.300000 0.600000 0.000000
0.134842 -0.405593 0.009300 0.300000 0.600000 0.000000
0.218537 -0.573150 0.122936 0.000000 0.500000 0.500000
-0.814023 0.507658 0.043278 0.300000 0.600000 0.000000
-0.127974 -0.509785 -0.024767 0.500000 0.000000 0.500000
-0.051780 0.403534 0.042612 0.600000 0.000000 0.300000
-0.407820 0.134616 0.043612 0.600000 0.000000 0.300000
-0.085460 -0.318650 0.043612 0.300000 0.600000 0.000000
0.310806 0.394242 -0.019798 0.300000 0.600000 0.000000
0.114374 -0.505297 -0.043289 0.500000 0.000000 0.500000
-0.823833 -0.116842 0.043581 0.300000 0.600000 0.000000
-0.131885 -0.286594 0.043612 0.600000 0.000000 0.300000
-0.055784 -0.302251 -0.112176 0.500000 0.000000 0.500000
-0.564234 -0.055097 0.043612 0.600000 0.000000 0.300000
-0.783600 0.041705 0.043612 0.300000 0.600000 0.000000
0.129202 -0.570747 0.137590 0.000000 0.500000 0.500000
-0.641299 -0.233818 0.043612 0.600000 0.000000 0.300000
-0.632647 0.280265 0.043612 0.600000 0.000000 0.300000
0.681906 -0.134201 0.043612 0.600000 0.000000 0.300000
-0.208818 -0.581947 -0.264183 0.000000 0.500000 0.500000
-0.333305 -0.276382 -0.021309 0.300000 0.600000 0.000000
-0.729959 0.570894 0.043375 0.300000 0.600000 0.000000
0.244900 -0.558643 -0.041904 0.000000 0.500000 0.500000
-0.201282 0.618672 -0.012633 0.300000 0.600000 0.000000
0.038686 0.067426 -0.112176 0.500000 0.000000 0.500000
-0.505812 0.294451 -0.007006 0.300000 0.600000 0.000000
-0.253076 -0.223152 -0.025743 0.300000 0.600000 0.000000
0.729046 0.215517 0.027305 0.300000 0.600000 0.000000
-0.224976 -0.582133 -0.258988 0.000000 0.500000 0.500000
0.758767 -0.115005 0.031939 0.300000 0.600000 0.000000
0.215907 0.545416 -0.025464 0.300000 0.600000 0.000000
0.243152 -0.558661 -0.157382 0.000000 0.500000 0.500000
-0.541119 -0.345914 -0.003473 0.300000 0.600000 0.000000
-0.150935 0.284486 0.042612 0.600000 0.000000 0.300000
-0.185481 -0.558778 0.015476 0.000000 0.500000 0.500000
0.762905 -0.186566 0.032593 0.300000 0.600000 0.000000
-0.282377 -0.554156 0.102749 0.000000 0.500000 0.500000
-0.314467 0.231315 0.043612 0.600000 0.000000 0.300000
0.267264 0.581173 -0.022854 0.300000 0.600000 0.000000
0.124452 0.157647 0.043612 0.600000 0.000000 0.300000
-0.263457 0.326493 0.042611 0.600000 0.000000 0.300000
0.571741 -0.383207 0.005360 0.300000 0.600000 0.000000
-0.480500 -0.264586 0.043612 0.600000 0.000000 0.300000
-0.304259 0.467185 -0.023250 0.300000 0.600000 0.000000
-0.243973 -0.554157 0.107309 0.000000 0.500000 0.500000
0.117024 -0.125830 -0.077203 0.500000 0.000000 0.500000
-0.387450 -0.388812 -0.017316 0.300000 0.600000 0.000000
0.079405 -0.554808 -0.196143 0.000000 0.500000 0.500000
-0.060075 -0.164740 0.043612 0.600000 0.000000 0.300000
0.478588 0.238806 -0.005357 0.300000 0.600000 0.000000
-0.512602 -0.387491 -0.006147 0.300000 0.600000 0.000000
0.018192 -0.577863 0.122656 0.000000 0.500000 0.500000
0.024177 0.350490 -0.031032 0.300000 0.600000 0.000000
0.082144 0.503282 0.043612 0.600000 0.000000 0.300000
-0.403488 -0.121421 0.043612 0.600000 0.000000 0.300000
-0.531589 -0.288104 -0.004427 0.300000 0.600000 0.000000
-0.276486 -0.195307 0.043612 0.600000 0.000000 0.300000
0.549432 0.254496 0.002416 0.300000 0.600000 0.000000
-0.308535 -0.022445 -0.022996 0.300000 0.600000 0.000000
-0.499338 0.291424 0.043612 0.600000 0.000000 0.300000
-0.718592 -0.242425 0.018789 0.300000 0.600000 0.000000
-0.042609 -0.572788 -0.146107 0.000000 0.500000 0.500000
-0.205614 -0.578681 0.045868 0.000000 0.500000 0.500000
-0.031480 -0.563731 -0.179100 0.000000 0.500000 0.500000
0.736319 0.146488 0.043612 0.300000 0.600000 0.000000
0.508168 -0.260449 -0.002374 0.300000 0.600000 0.000000
-0.289654 0.427441 -0.024080 0.300000 0.600000 0.000000
0.666625 -0.180861 0.017575 0.300000 0.600000 0.000000
0.702201 0.267840 0.023114 0.300000 0.600000 0.000000
-0.247253 -0.578443 0.095110 0.000000 0.500000 0.500000
0.701469 0.069514 0.043612 0.600000 0.000000 0.300000
-0.254218 -0.578122 -0.038937 0.000000 0.500000 0.500000
-0.371058 0.066171 -0.018617 0.300000 0.600000 0.000000
-0.028103 -0.289734 -0.112176 0.500000 0.000000 0.500000
-0.260370 -0.555154 -0.071311 0.000000 0.500000 0.500000
-0.299650 -0.582320 -0.162734 0.000000 0.500000 0.500000
-0.085357 -0.229486 -0.112176 0.500000 0.000000 0.500000
0.216018 -0.558778 -0.056386 0.000000 0.500000 0.500000
-0.102162 0.512753 -0.030544 0.300000 0.600000 0.000000
0.263856 -0.554385 0.099444 0.000000 0.500000 0.500000
-0.708217 0.548217 0.017269 0.300000 0.600000 0.000000
-0.182344 -0.567379 0.126026 0.000000 0.500000 0.500000
-0.374377 -0.003944 -0.018380 0.300000 0.600000 0.000000
0.135942 0.100277 0.043612 0.600000 0.000000 0.300000
0.134500 0.034429 -0.032354 0.300000 0.600000 0.000000
-0.648697 -0.343340 0.009452 0.300000 0.600000 0.000000
-0.671191 0.161724 0.043612 0.600000 0.000000 0.300000
-0.103000 -0.245529 -0.112176 0.500000 0.000000 0.500000
0.367572 -0.279174 0.042612 0.600000 0.000000 0.300000
-0.800961 0.476547 0.043285 0.300000 0.600000 0.000000
0.422164 0.607258 0.043306 0.300000 0.600000 0.000000
0.730767 0.119419 0.027565 0.300000 0.600000 0.000000
-0.455548 -0.113687 -0.012025 0.300000 0.600000 0.000000
-0.158821 -0.011199 -0.088847 0.500000 0.000000 0.500000
0.709571 -0.398489 0.042914 0.300000 0.600000 0.000000
-0.431008 -0.321140 -0.014261 0.300000 0.600000 0.000000
0.138764 -0.274576 -0.030029 0.300000 0.600000 0.000000
-0.687739 0.449169 0.043612 0.600000 0.000000 0.300000
-0.427567 -0.082777 -0.014536 0.300000 0.600000 0.000000
0.197366 -0.578712 -0.051567 0.000000 0.500000 0.500000
0.398144 -0.404276 0.038601 0.300000 0.600000 0.000000
0.235738 0.100665 0.043612 0.600000 0.000000 0.300000
-0.047600 -0.554357 -0.244936 0.000000 0.500000 0.500000
0.197645 0.155340 0.043612 0.600000 0.000000 0.300000
-0.727702 0.499257 0.020152 0.300000 0.600000 0.000000
0.685830 -0.088943 0.020455 0.300000 0.600000 0.000000
-0.146886 0.057667 -0.110501 0.500000 0.000000 0.500000
0.248529 -0.582336 0.043248 0.000000 0.500000 0.500000
0.243403 -0.578718 -0.198243 0.000000 0.500000 0.500000
0.340340 0.143488 0.043612 0.600000 0.000000 0.300000
0.288767 0.083262 -0.021371 0.300000 0.600000 0.000000
-0.466649 -0.190256 -0.010922 0.300000 0.600000 0.000000
-0.822366 -0.159379 0.043592 0.300000 0.600000 0.000000
-0.127427 -0.496442 -0.025391 0.500000 0.000000 0.500000
-0.110083 0.007766 0.043612 0.600000 0.000000 0.300000
-0.162138 -0.556852 -0.270354 0.000000 0.500000 0.500000
0.103984 0.226252 -0.029837 0.300000 0.600000 0.000000
-0.053746 0.043461 0.043572 0.600000 0.000000 0.300000
0.636904 0.520249 0.043612 0.600000 0.000000 0.300000
0.347636 -0.168912 0.042612 0.600000 0.000000 0.300000
0.624062 -0.349690 0.011911 0.300000 0.600000 0.000000
-0.593932 0.013102 0.002540 0.300000 0.600000 0.000000
-0.382214 0.618819 0.006679 0.300000 0.600000 0.000000
0.121423 -0.554153 0.065505 0.000000 0.500000 0.500000
-0.179693 0.304506 0.042612 0.600000 0.000000 0.300000
0.755762 0.326536 0.031464 0.300000 0.600000 0.000000
0.028743 -0.017768 -0.112176 0.500000 0.000000 0.500000
0.113426 -0.277808 -0.097546 0.500000 0.000000 0.500000
0.776201 0.171392 0.034702 0.300000 0.600000 0.000000
0.411789 -0.368156 0.043383 0.300000 0.600000 0.000000
0.279980 0.064671 0.043612 0.600000 0.000000 0.300000
0.200076 -0.582336 -0.117598 0.000000 0.500000 0.500000
0.137936 -0.554153 0.069622 0.000000 0.500000 0.500000
0.244961 -0.283318 0.042612 0.600000 0.000000 0.300000
-0.155006 -0.414406 -0.014044 0.500000 0.000000 0.500000
-0.716858 -0.158375 0.043612 0.600000 0.000000 0.300000
0.009517 0.108907 -0.081850 0.500000 0.000000 0.500000
0.356964 0.490142 0.043612 0.600000 0.000000 0.300000
-0.299445 0.587166 0.043061 0.300000 0.600000 0.000000
0.332008 0.092403 0.043612 0.600000 0.000000 0.300000
0.752099 -0.101625 0.043612 0.300000 0.600000 0.000000
-0.104902 -0.558778 -0.114237 0.000000 0.500000 0.500000
0.012594 -0.025402 -0.112176 0.500000 0.000000 0.500000
0.599643 0.065175 0.008763 0.300000 0.600000 0.000000
-0.639659 -0.099923 0.043612 0.600000 0.000000 0.300000
-0.160832 -0.227288 -0.069372 0.500000 0.000000 0.500000
0.522844 -0.079843 0.043612 0.600000 0.000000 0.300000
-0.781096 -0.315294 0.043612 0.300000 0.600000 0.000000
0.353036 0.287637 0.043612 0.600000 0.000000 0.300000
-0.756412 0.172776 0.024792 0.300000 0.600000 0.000000
-0.260458 -0.073924 -0.025428 0.300000 0.600000 0.000000
-0.459632 0.292714 0.043612 0.600000 0.000000 0.300000
0.129155 0.264246 -0.029103 0.300000 0.600000 0.000000
-0.194650 -0.578190 -0.141054 0.000000 0.500000 0.500000
0.202928 0.337840 -0.026020 0.300000 0.600000 0.000000
-0.322128 0.365855 0.042611 0.600000 0.000000 0.300000
-0.422134 0.354134 -0.014934 0.300000 0.600000 0.000000
-0.227168 0.568703 0.042944 0.300000 0.600000 0.000000
0.115667 0.009916 -0.088475 0.500000 0.000000 0.500000
-0.083608 -0.217862 0.043612 0.600000 0.000000 0.300000
-0.523302 0.525651 0.042612 0.600000 0.000000 0.300000
0.535719 -0.382971 0.043562 0.300000 0.600000 0.000000
0.107858 -0.558778 -0.146226 0.000000 0.500000 0.500000
0.248912 0.448409 0.043612 0.600000 0.000000 0.300000
0.159590 0.564943 -0.027872 0.300000 0.600000 0.000000
0.644221 0.382861 0.043612 0.600000 0.000000 0.300000
-0.794040 -0.022075 0.030606 0.300000 0.600000 0.000000
-0.810968 -0.389494 0.033394 0.300000 0.600000 0.000000
-0.243380 0.591179 -0.026157 0.300000 0.600000 0.000000
0.054998 0.201176 0.043612 0.600000 0.000000 0.300000
-0.050578 -0.581336 0.133494 0.000000 0.500000 0.500000
-0.219200 -0.558778 -0.157876 0.000000 0.500000 0.500000
-0.319109 0.323762 0.043037 0.600000 0.000000 0.300000
0.181418 0.191911 -0.026939 0.300000 0.600000 0.000000
0.202940 -0.578230 0.060738 0.000000 0.500000 0.500000
-0.601483 -0.070708 0.043612 0.600000 0.000000 0.300000
-0.656905 0.392330 0.043612 0.600000 0.000000 0.300000
-0.217894 0.049226 0.043612 0.600000 0.000000 0.300000
0.415101 0.504796 -0.011705 0.300000 0.600000 0.000000
0.226664 0.438009 0.043612 0.600000 0.000000 0.300000
-0.099338 -0.365446 0.043611 0.300000 0.600000 0.000000
0.501755 0.055965 0.043612 0.600000 0.000000 0.300000
-0.551375 0.556669 0.042846 0.300000 0.600000 0.000000
-0.051112 -0.120440 0.043484 0.600000 0.000000 0.300000
-0.755936 0.402718 0.024717 0.300000 0.600000 0.000000
-0.253654 0.360966 0.042612 0.600000 0.000000 0.300000
-0.550000 0.301307 0.043612 0.600000 0.000000 0.300000
0.418185 0.022088 0.043612 0.600000 0.000000 0.300000
-0.746036 0.384937 0.043612 0.600000 0.000000 0.300000
-0.059712 -0.567482 -0.196392 0.000000 0.500000 0.500000
0.049364 0.356404 0.043612 0.600000 0.000000 0.300000
0.217568 -0.558778 -0.086230 0.000000 0.500000 0.500000
0.143180 -0.383502 0.043552 0.300000 0.600000 0.000000
-0.267127 -0.578052 -0.235834 0.000000 0.500000 0.500000
0.202856 -0.578445 -0.171508 0.000000 0.500000 0.500000
-0.121882 0.207674 0.042962 0.600000 0.000000 0.300000
0.583842 0.371457 0.043612 0.600000 0.000000 0.300000
-0.175201 -0.578712 -0.202273 0.000000 0.500000 0.500000
0.113766 -0.214174 -0.096098 0.500000 0.000000 0.500000
-0.226445 -0.232368 -0.026883 0.300000 0.600000 0.000000
-0.487193 0.354775 0.043612 0.600000 0.000000 0.300000
0.136804 -0.554696 -0.154798 0.000000 0.500000 0.500000
-0.708199 -0.103653 0.017266 0.300000 0.600000 0.000000
0.338996 0.080681 0.043612 0.600000 0.000000 0.300000
0.384181 0.012826 0.043612 0.600000 0.000000 0.300000
-0.182787 0.527576 -0.028736 0.300000 0.600000 0.000000
0.541178 -0.356756 0.001332 0.300000 0.600000 0.000000
0.034961 0.361109 0.043612 0.600000 0.000000 0.300000
-0.125090 -0.244981 0.043612 0.600000 0.000000 0.300000
0.094589 0.006497 0.042729 0.600000 0.000000 0.300000
-0.319232 0.441581 0.042612 0.600000 0.000000 0.300000
0.139069 0.534125 -0.028738 0.300000 0.600000 0.000000
0.021614 -0.566513 -0.205578 0.000000 0.500000 0.500000
-0.291117 0.618803 -0.004967 0.300000 0.600000 0.000000
0.255798 0.046868 -0.023534 0.300000 0.600000 0.000000
0.352344 0.401160 0.043612 0.600000 0.000000 0.300000
