ply
format ascii 1.0
element vertex 633
property float x
property float y
property float z
property float nx
property float ny
property float nz
property uchar red
property uchar green
property uchar blue
property float opacity
end_header
-0.843228 0.070929 0.040715 0.155639 0.000000 0.987814 53 53 53 1.000000
0.626915 0.605565 0.041300 0.000000 0.000000 1.000000 33 33 33 1.000000
0.223532 0.290784 0.041300 0.000000 0.000000 1.000000 128 128 128 0.500000
-0.714240 -0.341388 0.020341 0.142330 0.000000 0.989819 66 66 66 1.000000
-0.389418 -0.250964 -0.014990 0.075773 0.000000 0.997125 0 0 0 1.000000
-0.211299 -0.146638 0.041300 0.000000 0.000000 -1.000000 128 128 128 0.500000
0.193621 -0.239582 0.041300 0.000000 0.000000 1.000000 128 128 128 0.500000
-0.336956 -0.188778 0.041300 0.000000 0.000000 1.000000 128 128 128 0.500000
-0.130669 -0.023742 -0.027826 -0.014241 0.000000 -0.999899 33 33 33 1.000000
-0.392576 0.022738 0.041300 0.000000 0.000000 1.000000 128 128 128 0.500000
0.196420 0.304493 -0.023984 -0.044995 0.000000 0.998987 1 1 1 1.000000
0.004168 0.163803 -0.029006 0.015839 0.000000 -0.999875 33 33 33 1.000000
-0.004628 -0.432904 -0.109864 0.000000 0.000000 1.000000 33 33 33 1.000000
0.294912 0.556573 -0.018615 0.065298 0.000000 -0.997866 33 33 33 1.000000
-0.111059 -0.181354 -0.028106 0.014241 0.000000 0.999899 93 93 93 1.000000
0.168631 -0.167389 0.041300 0.000000 0.000000 1.000000 128 128 128 0.500000
-0.489788 0.187713 -0.006285 -0.096464 0.000000 -0.995336 33 33 33 1.000000
-0.281275 0.442245 0.041300 0.000000 0.000000 1.000000 128 128 128 0.500000
0.134460 0.554602 -0.026633 0.032221 0.000000 -0.999481 33 33 33 1.000000
-0.392759 0.167967 0.041300 0.000000 0.000000 -1.000000 128 128 128 0.500000
-0.501956 -0.000382 0.041300 0.000000 0.000000 -1.000000 128 128 128 0.500000
-0.785240 -0.339536 0.041300 0.000000 0.000000 -1.000000 128 128 128 0.500000
-0.289235 0.616523 0.040822 0.000000 -1.000000 0.000000 33 33 33 1.000000
-0.564591 0.572419 0.001197 0.111876 0.000000 0.993722 98 98 98 1.000000
0.108818 -0.403334 0.002764 0.000000 -1.000000 0.000000 33 33 33 1.000000
-0.129158 0.291850 0.041300 0.000000 0.000000 -1.000000 128 128 128 0.500000
-0.276661 -0.556466 0.048592 0.000000 -1.000000 0.000000 255 255 255 1.000000
0.079703 -0.580024 -0.208012 0.000000 1.000000 0.000000 33 33 33 1.000000
0.045548 0.588823 -0.028416 0.021187 0.000000 -0.999776 33 33 33 1.000000
-0.429542 0.606427 0.041300 0.000000 0.000000 1.000000 33 33 33 1.000000
0.452935 0.522349 0.041300 0.000000 0.000000 1.000000 128 128 128 0.500000
-0.135838 0.163540 0.041300 0.000000 0.000000 -1.000000 128 128 128 0.500000
0.265313 0.614271 0.041300 0.000000 0.000000 -1.000000 33 33 33 1.000000
0.320042 -0.065601 0.041300 0.000000 0.000000 -1.000000 128 128 128 0.500000
0.684615 0.445702 0.041300 0.000000 0.000000 1.000000 128 128 128 0.500000
0.074643 0.078584 -0.028002 0.014241 0.000000 -0.999899 33 33 33 1.000000
0.394014 0.430674 -0.011494 0.085720 0.000000 -0.996319 33 33 33 1.000000
0.046858 0.312281 0.041300 0.000000 0.000000 -1.000000 128 128 128 0.500000
0.563668 0.455203 0.006456 -0.120699 0.000000 0.992689 10 10 10 1.000000
0.308255 0.507660 0.041300 0.000000 0.000000 -1.000000 128 128 128 0.500000
-0.111837 -0.574586 0.134726 -0.014241 0.000000 -0.999899 33 33 33 1.000000
-0.564103 0.491978 0.041300 0.000000 0.000000 -1.000000 128 128 128 0.500000
0.483368 -0.399034 -0.002556 -0.104147 0.000000 0.994562 89 89 89 1.000000
-0.172262 0.134068 -0.026885 -0.043975 0.000000 -0.999033 33 33 33 1.000000
-0.409497 0.197664 -0.013558 0.079910 0.000000 0.996802 80 80 80 1.000000
-0.517741 0.560916 0.041300 0.000000 0.000000 -1.000000 128 128 128 0.500000
-0.415131 -0.397180 0.041300 0.000000 0.000000 -1.000000 33 33 33 1.000000
-0.330281 0.361473 0.041300 0.000000 0.000000 -1.000000 128 128 128 0.500000
0.112845 -0.039453 -0.095059 -0.966641 0.000000 0.256135 8 8 8 0.680000
0.662374 0.097405 0.019177 -0.141037 0.000000 0.990004 86 86 86 1.000000
0.230997 -0.403334 0.040497 0.000000 -1.000000 0.000000 33 33 33 1.000000
0.340185 -0.369980 -0.015385 -0.074632 0.000000 0.997211 94 94 94 1.000000
-0.069795 0.198268 -0.028693 -0.014241 0.000000 -0.999899 33 33 33 1.000000
-0.021271 -0.556466 -0.068349 0.000000 1.000000 0.000000 33 33 33 1.000000
-0.665522 0.205889 0.013952 -0.132690 0.000000 -0.991158 33 33 33 1.000000
0.534249 -0.349871 0.002664 -0.114627 0.000000 0.993409 74 74 74 1.000000
0.602840 0.041259 0.011504 0.128777 0.000000 -0.991674 33 33 33 1.000000
-0.568857 -0.021038 0.041300 0.000000 0.000000 -1.000000 128 128 128 0.500000
0.101143 -0.316981 0.041300 0.000000 0.000000 1.000000 128 128 128 0.500000
0.020753 -0.403334 0.033896 0.000000 -1.000000 0.000000 33 33 33 1.000000
0.383229 -0.244478 0.041300 0.000000 0.000000 1.000000 128 128 128 0.500000
0.253206 -0.302428 -0.021556 -0.056696 0.000000 0.998391 47 47 47 1.000000
-0.467101 0.303388 -0.008554 0.091785 0.000000 0.995779 86 86 86 1.000000
0.475322 0.020575 -0.003361 -0.102490 0.000000 0.994734 1 1 1 1.000000
-0.220841 0.346423 0.041300 0.000000 0.000000 -1.000000 128 128 128 0.500000
-0.127616 0.570280 -0.027870 -0.014241 0.000000 -0.999899 33 33 33 1.000000
-0.165560 -0.556466 0.046845 0.000000 1.000000 0.000000 33 33 33 1.000000
-0.184363 -0.556466 -0.190316 0.000000 -1.000000 0.000000 255 255 255 1.000000
-0.566731 0.357558 0.001412 -0.112317 0.000000 -0.993672 33 33 33 1.000000
0.412064 0.573446 -0.009689 -0.089445 0.000000 0.995992 82 82 82 1.000000
-0.338615 0.576071 -0.018614 0.065300 0.000000 0.997866 84 84 84 1.000000
-0.474901 0.089413 -0.007774 -0.093394 0.000000 -0.995629 33 33 33 1.000000
-0.026842 -0.001167 -0.029305 -0.014241 0.000000 -0.999899 33 33 33 1.000000
-0.471762 0.514912 -0.008088 0.092747 0.000000 0.995690 90 90 90 1.000000
0.453109 0.134552 -0.005583 0.097911 0.000000 -0.995195 33 33 33 1.000000
0.431873 -0.343034 0.041300 0.000000 0.000000 1.000000 128 128 128 0.500000
-0.390444 0.546781 0.041300 0.000000 0.000000 1.000000 128 128 128 0.500000
0.419304 -0.307666 -0.008964 -0.090939 0.000000 0.995856 96 96 96 1.000000
0.375842 -0.118827 -0.012842 -0.081978 0.000000 0.996634 75 75 75 1.000000
0.704646 0.529350 0.025727 0.145850 0.000000 -0.989307 33 33 33 1.000000
0.168908 -0.403334 -0.016529 0.000000 1.000000 0.000000 33 33 33 1.000000
0.404353 -0.122369 0.041300 0.000000 0.000000 -1.000000 128 128 128 0.500000
-0.065527 -0.194331 -0.109864 0.000000 0.000000 -1.000000 33 33 33 1.000000
-0.692088 0.003005 0.017376 0.138161 0.000000 0.990410 95 95 95 1.000000
-0.083961 0.355690 -0.028492 -0.014241 0.000000 -0.999899 33 33 33 1.000000
0.213631 -0.146569 -0.023248 0.048543 0.000000 -0.998821 33 33 33 1.000000
-0.052410 -0.110909 -0.028941 0.014241 0.000000 0.999899 105 105 105 1.000000
-0.048856 -0.303921 -0.028992 -0.014241 0.000000 -0.999899 33 33 33 1.000000
0.582342 0.218708 0.008863 0.124551 0.000000 -0.992213 33 33 33 1.000000
-0.473408 0.248667 0.041300 0.000000 0.000000 -1.000000 128 128 128 0.500000
-0.222826 0.414034 0.041300 0.000000 0.000000 1.000000 128 128 128 0.500000
0.165029 -0.055851 0.041300 0.000000 0.000000 -1.000000 128 128 128 0.500000
-0.283999 -0.350470 -0.022108 0.055488 0.000000 0.998459 9 9 9 1.000000
-0.560734 0.059470 0.041300 0.000000 0.000000 -1.000000 128 128 128 0.500000
-0.422529 -0.032442 -0.012629 -0.082594 0.000000 -0.996583 33 33 33 1.000000
-0.148510 -0.380643 -0.027572 -0.014241 0.000000 -0.999899 33 33 33 1.000000
0.097092 -0.369506 -0.109864 0.000000 0.000000 1.000000 33 33 33 1.000000
0.048462 -0.049523 -0.109864 0.000000 0.000000 1.000000 33 33 33 1.000000
0.174505 -0.556466 -0.090070 0.000000 1.000000 0.000000 33 33 33 1.000000
-0.016812 -0.062640 0.041300 0.000000 0.000000 -1.000000 128 128 128 0.500000
0.195367 0.197591 -0.024029 0.044778 0.000000 -0.998997 33 33 33 1.000000
0.663256 0.158583 0.019291 -0.141219 0.000000 0.989978 82 82 82 1.000000
0.442215 -0.228445 0.041300 0.000000 0.000000 1.000000 128 128 128 0.500000
-0.788743 0.254576 0.041300 0.000000 0.000000 1.000000 128 128 128 0.500000
-0.545250 -0.339821 0.041300 0.000000 0.000000 1.000000 128 128 128 0.500000
0.277885 -0.556466 -0.099952 0.000000 1.000000 0.000000 33 33 33 1.000000
0.465630 -0.162467 0.041300 0.000000 0.000000 -1.000000 128 128 128 0.500000
0.001935 -0.204669 -0.029038 -0.014241 0.000000 0.999899 94 94 94 1.000000
-0.325297 0.217309 -0.019564 0.062553 0.000000 0.998042 93 93 93 1.000000
0.333040 0.270576 0.041300 0.000000 0.000000 1.000000 128 128 128 0.500000
0.568696 0.130505 0.007104 -0.121736 0.000000 0.992562 95 95 95 1.000000
0.110089 0.057541 -0.103911 0.940756 0.000000 -0.339084 1 1 1 0.680000
0.154011 0.050666 0.041300 0.000000 0.000000 1.000000 128 128 128 0.500000
0.689144 -0.263551 0.041300 0.000000 0.000000 1.000000 128 128 128 0.500000
-0.693742 -0.278357 0.017589 0.138501 0.000000 0.990362 89 89 89 1.000000
-0.038714 0.231440 0.041300 0.000000 0.000000 1.000000 128 128 128 0.500000
-0.148192 0.411707 -0.027577 -0.014241 0.000000 -0.999899 33 33 33 1.000000
0.187588 -0.580024 -0.195630 0.000000 -1.000000 0.000000 33 33 33 1.000000
0.130977 -0.225889 -0.026782 0.031502 0.000000 -0.999504 33 33 33 1.000000
0.059027 -0.254631 -0.109864 0.000000 0.000000 -1.000000 33 33 33 1.000000
-0.594232 0.434938 0.041300 0.000000 0.000000 -1.000000 128 128 128 0.500000
0.408268 0.102446 0.041300 0.000000 0.000000 -1.000000 128 128 128 0.500000
-0.088736 0.518361 0.041300 0.000000 0.000000 -1.000000 128 128 128 0.500000
-0.452971 0.491965 0.041300 0.000000 0.000000 1.000000 128 128 128 0.500000
-0.381457 0.109991 -0.015558 -0.074133 0.000000 -0.997248 33 33 33 1.000000
0.169156 0.251039 0.041300 0.000000 0.000000 -1.000000 128 128 128 0.500000
-0.060028 -0.165419 0.041300 0.000000 0.000000 1.000000 128 128 128 0.500000
-0.614932 0.264362 0.041300 0.000000 0.000000 1.000000 128 128 128 0.500000
0.334397 0.188775 -0.015798 0.073439 0.000000 -0.997300 33 33 33 1.000000
0.072668 -0.543963 -0.028030 -0.014241 0.000000 0.999899 33 33 33 1.000000
-0.130067 -0.580024 -0.207576 0.000000 -1.000000 0.000000 33 33 33 1.000000
0.065826 -0.015768 -0.028128 0.014241 0.000000 -0.999899 33 33 33 1.000000
-0.073599 -0.036389 -0.028639 0.014241 0.000000 0.999899 94 94 94 1.000000
0.108174 -0.159053 0.041300 0.000000 0.000000 -1.000000 128 128 128 0.500000
0.338176 0.368715 -0.015529 0.074218 0.000000 -0.997242 33 33 33 1.000000
-0.023172 -0.403334 -0.007121 0.000000 -1.000000 0.000000 33 33 33 1.000000
-0.517563 -0.100061 0.041300 0.000000 0.000000 -1.000000 128 128 128 0.500000
-0.093437 -0.556466 -0.160337 0.000000 1.000000 0.000000 33 33 33 1.000000
0.080514 0.559443 0.041300 0.000000 0.000000 -1.000000 128 128 128 0.500000
0.433909 0.188347 -0.007504 0.093951 0.000000 -0.995577 33 33 33 1.000000
-0.792543 -0.238535 0.041300 0.000000 0.000000 -1.000000 128 128 128 0.500000
0.094022 0.420482 0.041300 0.000000 0.000000 -1.000000 128 128 128 0.500000
-0.194600 0.186570 -0.025930 0.046277 0.000000 0.998929 91 91 91 1.000000
0.019895 -0.580024 0.076682 0.000000 1.000000 0.000000 33 33 33 1.000000
-0.292385 0.345696 -0.021749 -0.056352 0.000000 -0.998411 33 33 33 1.000000
-0.161076 0.243007 0.041300 0.000000 0.000000 -1.000000 128 128 128 0.500000
0.561875 0.397379 0.006225 0.120329 0.000000 -0.992734 33 33 33 1.000000
0.528827 0.254887 0.001991 -0.113508 0.000000 0.993537 32 32 32 1.000000
0.196100 0.159363 0.041300 0.000000 0.000000 1.000000 128 128 128 0.500000
-0.500808 -0.032886 -0.005182 -0.098737 0.000000 -0.995114 33 33 33 1.000000
0.368179 0.208332 0.041300 0.000000 0.000000 -1.000000 128 128 128 0.500000
0.239044 0.565542 -0.022162 -0.053779 0.000000 0.998553 8 8 8 1.000000
-0.010127 -0.556466 -0.143800 0.000000 -1.000000 0.000000 33 33 33 1.000000
-0.002718 0.341330 0.041300 0.000000 0.000000 1.000000 128 128 128 0.500000
0.031846 -0.025450 0.041300 0.000000 0.000000 1.000000 128 128 128 0.500000
-0.135184 -0.078760 0.041300 0.000000 0.000000 -1.000000 128 128 128 0.500000
0.155252 0.108692 -0.025744 -0.036508 0.000000 0.999333 39 39 39 1.000000
0.466152 0.616523 -0.004260 0.000000 -1.000000 0.000000 33 33 33 1.000000
0.046313 0.123833 0.041300 0.000000 0.000000 -1.000000 128 128 128 0.500000
-0.055327 0.100315 0.041300 0.000000 0.000000 -1.000000 128 128 128 0.500000
-0.338334 0.462085 -0.018634 0.065242 0.000000 0.997869 87 87 87 1.000000
-0.722727 -0.150354 0.021682 -0.143206 0.000000 -0.989693 33 33 33 1.000000
0.570231 -0.030154 0.041300 0.000000 0.000000 1.000000 128 128 128 0.500000
-0.550433 -0.295920 -0.000219 0.108962 0.000000 0.994046 51 51 51 1.000000
-0.712345 0.114082 0.041300 0.000000 0.000000 1.000000 128 128 128 0.500000
-0.542653 0.268171 0.041300 0.000000 0.000000 1.000000 128 128 128 0.500000
-0.158601 -0.507462 -0.056149 0.988936 0.000000 -0.148344 33 33 33 1.000000
0.603646 0.474148 0.041300 0.000000 0.000000 -1.000000 128 128 128 0.500000
-0.476496 -0.086022 -0.007614 0.093723 0.000000 0.995598 65 65 65 1.000000
-0.497123 -0.251002 -0.005551 -0.097977 0.000000 -0.995189 33 33 33 1.000000
-0.449972 -0.255315 0.041300 0.000000 0.000000 -1.000000 128 128 128 0.500000
-0.319467 -0.565593 0.137684 0.014241 0.000000 0.999899 33 33 33 1.000000
-0.158473 -0.266525 -0.084464 -0.987559 0.000000 -0.157246 33 33 33 1.000000
-0.158141 -0.163625 -0.086316 0.984163 0.000000 0.177264 33 33 33 1.000000
0.450604 -0.040413 -0.005834 -0.097394 0.000000 0.995246 39 39 39 1.000000
-0.584933 -0.234622 0.041300 0.000000 0.000000 -1.000000 128 128 128 0.500000
0.390789 0.396619 0.041300 0.000000 0.000000 1.000000 128 128 128 0.500000
-0.407821 -0.156302 0.041300 0.000000 0.000000 -1.000000 128 128 128 0.500000
-0.605197 0.349100 0.041300 0.000000 0.000000 1.000000 128 128 128 0.500000
0.149924 0.516865 0.041300 0.000000 0.000000 -1.000000 128 128 128 0.500000
0.379843 0.275480 -0.012557 -0.082802 0.000000 0.996566 70 70 70 1.000000
-0.506371 0.416601 -0.004626 0.099883 0.000000 0.994999 77 77 77 1.000000
-0.152548 0.027646 -0.105389 -0.928245 0.000000 -0.371969 10 10 10 0.680000
-0.477707 0.349824 0.041300 0.000000 0.000000 1.000000 128 128 128 0.500000
0.137719 -0.566602 -0.272668 0.000000 0.000000 -1.000000 33 33 33 1.000000
0.285398 -0.180459 0.041300 0.000000 0.000000 -1.000000 128 128 128 0.500000
0.529414 -0.177791 0.002049 -0.113629 0.000000 0.993523 11 11 11 1.000000
0.409933 0.042286 0.041300 0.000000 0.000000 1.000000 128 128 128 0.500000
0.619770 -0.280752 0.041300 0.000000 0.000000 1.000000 128 128 128 0.500000
-0.602509 0.050764 0.005830 0.119698 0.000000 0.992810 3 3 3 1.000000
0.369071 0.062666 -0.013325 -0.080583 0.000000 0.996748 18 18 18 1.000000
-0.446575 -0.003327 0.041300 0.000000 0.000000 -1.000000 128 128 128 0.500000
-0.455579 -0.355601 -0.009706 -0.089408 0.000000 -0.995995 33 33 33 1.000000
0.559924 -0.117777 0.005973 0.119926 0.000000 -0.992783 33 33 33 1.000000
-0.406388 -0.094451 0.041300 0.000000 0.000000 -1.000000 128 128 128 0.500000
-0.229433 0.615282 -0.024441 -0.049867 0.000000 -0.998756 33 33 33 1.000000
0.235059 0.099407 0.041300 0.000000 0.000000 1.000000 128 128 128 0.500000
0.339447 0.010395 -0.015438 0.074480 0.000000 -0.997223 33 33 33 1.000000
0.748590 -0.277102 0.041300 0.000000 0.000000 -1.000000 128 128 128 0.500000
-0.044362 -0.082043 -0.109864 0.000000 0.000000 -1.000000 33 33 33 1.000000
-0.377807 -0.352705 0.041300 0.000000 0.000000 1.000000 128 128 128 0.500000
-0.102490 -0.411885 -0.028228 0.014241 0.000000 0.999899 33 33 33 1.000000
-0.132372 -0.580024 0.008552 0.000000 -1.000000 0.000000 33 33 33 1.000000
-0.131441 0.053392 0.041300 0.000000 0.000000 1.000000 128 128 128 0.500000
0.279124 -0.575354 -0.185952 -1.000000 0.000000 0.000000 33 33 33 1.000000
0.522852 0.057081 0.001393 0.112279 0.000000 -0.993677 33 33 33 1.000000
-0.174590 0.439624 0.041300 0.000000 0.000000 -1.000000 128 128 128 0.500000
-0.018438 0.541940 0.041300 0.000000 0.000000 -1.000000 128 128 128 0.500000
-0.728336 0.462651 0.041300 0.000000 0.000000 1.000000 128 128 128 0.500000
0.599695 -0.216795 0.041300 0.000000 0.000000 1.000000 128 128 128 0.500000
0.419643 -0.185560 -0.008931 0.091009 0.000000 -0.995850 33 33 33 1.000000
-0.220959 0.501718 -0.024803 -0.048994 0.000000 -0.998799 33 33 33 1.000000
0.502977 -0.325115 0.041300 0.000000 0.000000 1.000000 128 128 128 0.500000
-0.398752 0.479048 -0.014325 -0.077697 0.000000 -0.996977 33 33 33 1.000000
0.277356 0.460516 -0.019867 -0.061677 0.000000 0.998096 86 86 86 1.000000
0.428947 0.251198 -0.008000 -0.092928 0.000000 0.995673 66 66 66 1.000000
0.167810 0.442642 -0.025207 0.039097 0.000000 -0.999235 33 33 33 1.000000
-0.701572 0.311794 0.041300 0.000000 0.000000 -1.000000 128 128 128 0.500000
0.503872 0.540917 0.041300 0.000000 0.000000 -1.000000 128 128 128 0.500000
-0.729329 0.251891 0.041300 0.000000 0.000000 -1.000000 128 128 128 0.500000
0.096167 -0.258222 0.041300 0.000000 0.000000 1.000000 128 128 128 0.500000
0.134031 -0.556466 -0.017368 0.000000 1.000000 0.000000 33 33 33 1.000000
-0.109682 -0.008327 -0.109864 0.000000 0.000000 -1.000000 33 33 33 1.000000
-0.361659 -0.116474 -0.016970 -0.070052 0.000000 -0.997543 33 33 33 1.000000
0.235212 -0.580024 0.001202 0.000000 1.000000 0.000000 33 33 33 1.000000
-0.138217 0.261428 -0.027719 -0.014241 0.000000 -0.999899 33 33 33 1.000000
0.216308 0.354654 -0.023134 0.049094 0.000000 -0.998794 33 33 33 1.000000
0.023883 0.512952 -0.028725 0.018954 0.000000 -0.999820 33 33 33 1.000000
0.102660 -0.049596 0.041300 0.000000 0.000000 -1.000000 128 128 128 0.500000
0.645023 0.266359 0.041300 0.000000 0.000000 1.000000 128 128 128 0.500000
-0.299787 0.533007 -0.021384 -0.057292 0.000000 -0.998357 33 33 33 1.000000
0.400406 -0.050895 0.041300 0.000000 0.000000 -1.000000 128 128 128 0.500000
0.762849 0.392831 0.041300 0.000000 0.000000 -1.000000 128 128 128 0.500000
0.532846 -0.080869 0.041300 0.000000 0.000000 -1.000000 128 128 128 0.500000
-0.553227 0.117915 0.041300 0.000000 0.000000 -1.000000 128 128 128 0.500000
-0.138743 -0.259025 0.041300 0.000000 0.000000 1.000000 128 128 128 0.500000
-0.729742 0.544516 0.022790 0.143930 0.000000 0.989588 65 65 65 1.000000
-0.577564 -0.089131 0.041300 0.000000 0.000000 1.000000 128 128 128 0.500000
-0.069909 0.289696 0.041300 0.000000 0.000000 -1.000000 128 128 128 0.500000
-0.199518 -0.556466 -0.125720 0.000000 -1.000000 0.000000 255 255 255 1.000000
-0.218239 0.528679 0.041300 0.000000 0.000000 -1.000000 128 128 128 0.500000
0.016876 -0.350625 0.041300 0.000000 0.000000 -1.000000 128 128 128 0.500000
-0.043251 0.616523 0.016851 0.000000 1.000000 0.000000 33 33 33 1.000000
-0.613912 -0.017447 0.007300 -0.122050 0.000000 -0.992524 33 33 33 1.000000
-0.022465 0.106594 -0.073039 0.000000 1.000000 0.000000 33 33 33 1.000000
0.333191 -0.345896 0.041300 0.000000 0.000000 1.000000 128 128 128 0.500000
0.079104 -0.445589 -0.027938 0.014241 0.000000 -0.999899 33 33 33 1.000000
-0.268116 0.020484 0.041300 0.000000 0.000000 1.000000 128 128 128 0.500000
-0.275043 -0.240133 -0.022491 -0.054565 0.000000 -0.998510 33 33 33 1.000000
-0.654609 0.403892 0.041300 0.000000 0.000000 -1.000000 128 128 128 0.500000
0.471073 -0.252449 -0.003786 -0.101614 0.000000 0.994824 87 87 87 1.000000
0.609488 -0.132801 0.041300 0.000000 0.000000 -1.000000 128 128 128 0.500000
0.025317 -0.227357 0.041300 0.000000 0.000000 1.000000 128 128 128 0.500000
0.042269 -0.556466 -0.237287 0.000000 1.000000 0.000000 33 33 33 1.000000
-0.187822 0.299585 -0.026220 -0.045579 0.000000 -0.998961 33 33 33 1.000000
0.727998 0.342391 0.041300 0.000000 0.000000 1.000000 128 128 128 0.500000
0.237944 -0.199769 -0.022209 0.053552 0.000000 -0.998565 33 33 33 1.000000
-0.416560 -0.320170 -0.013054 0.081365 0.000000 0.996684 82 82 82 1.000000
0.515040 0.165139 0.000612 0.110671 0.000000 -0.993857 33 33 33 1.000000
0.764379 0.124733 0.035162 -0.152014 0.000000 0.988378 99 99 99 1.000000
0.115438 -0.099643 -0.055444 -0.991677 0.000000 -0.128747 255 255 255 1.000000
-0.514513 0.350673 -0.003812 0.101562 0.000000 0.994829 88 88 88 1.000000
-0.110067 -0.373549 -0.109864 0.000000 0.000000 1.000000 33 33 33 1.000000
-0.485771 0.603040 0.041300 0.000000 0.000000 -1.000000 33 33 33 1.000000
-0.506493 -0.167448 0.041300 0.000000 0.000000 1.000000 128 128 128 0.500000
0.291820 -0.403334 0.035128 0.000000 -1.000000 0.000000 33 33 33 1.000000
0.367394 -0.313666 -0.013445 -0.080238 0.000000 0.996776 106 106 106 1.000000
0.152792 -0.002787 -0.025849 -0.036001 0.000000 0.999352 23 23 23 1.000000
0.664731 -0.014592 0.041300 0.000000 0.000000 -1.000000 128 128 128 0.500000
-0.491740 -0.303047 -0.006089 0.096867 0.000000 0.995297 93 93 93 1.000000
0.116035 -0.174406 -0.076171 -0.997361 0.000000 0.072598 255 255 255 1.000000
0.741298 -0.172894 0.041300 0.000000 0.000000 1.000000 128 128 128 0.500000
-0.231406 -0.194890 0.041300 0.000000 0.000000 -1.000000 128 128 128 0.500000
0.137425 0.139660 0.041300 0.000000 0.000000 -1.000000 128 128 128 0.500000
0.107732 -0.273395 -0.109499 -1.000000 0.000000 0.000000 33 33 33 1.000000
-0.239563 0.266013 -0.024008 -0.050910 0.000000 -0.998703 33 33 33 1.000000
0.332171 0.616523 0.040912 0.000000 1.000000 0.000000 33 33 33 1.000000
-0.341796 -0.015980 0.041300 0.000000 0.000000 1.000000 128 128 128 0.500000
0.041699 0.234277 -0.028471 0.017807 0.000000 -0.999841 33 33 33 1.000000
0.802488 0.484108 0.041300 0.000000 0.000000 -1.000000 33 33 33 1.000000
0.245248 0.338016 0.041300 0.000000 0.000000 -1.000000 128 128 128 0.500000
-0.793468 0.545318 0.041300 0.000000 0.000000 1.000000 128 128 128 0.500000
-0.530675 0.072755 -0.002195 0.104892 0.000000 0.994484 86 86 86 1.000000
0.694073 -0.363610 0.024057 0.144759 0.000000 -0.989467 33 33 33 1.000000
-0.049760 0.437789 0.041300 0.000000 0.000000 -1.000000 128 128 128 0.500000
-0.428218 0.438314 0.041300 0.000000 0.000000 1.000000 128 128 128 0.500000
0.785615 -0.222070 0.038517 -0.154204 0.000000 0.988039 0 0 0 1.000000
-0.661397 -0.190677 0.013420 -0.131840 0.000000 -0.991271 33 33 33 1.000000
-0.072847 -0.110016 0.041300 0.000000 0.000000 -1.000000 128 128 128 0.500000
-0.367918 0.069876 0.041300 0.000000 0.000000 1.000000 128 128 128 0.500000
-0.110128 0.462142 -0.028119 -0.014241 0.000000 -0.999899 33 33 33 1.000000
-0.375834 -0.055914 -0.015959 0.072974 0.000000 0.997334 72 72 72 1.000000
-0.496085 0.563074 -0.005655 -0.097763 0.000000 -0.995210 33 33 33 1.000000
-0.651708 0.566515 0.012171 0.129844 0.000000 0.991534 92 92 92 1.000000
0.084447 0.129351 -0.027862 0.014876 0.000000 -0.999889 33 33 33 1.000000
0.403886 0.494726 0.041300 0.000000 0.000000 1.000000 128 128 128 0.500000
-0.076899 0.560614 -0.028592 0.014241 0.000000 0.999899 2 2 2 1.000000
0.268372 -0.356403 -0.020508 -0.059824 0.000000 0.998209 36 36 36 1.000000
-0.617465 -0.322564 0.007758 0.122783 0.000000 0.992433 62 62 62 1.000000
-0.660547 -0.103433 0.013311 -0.131665 0.000000 -0.991294 33 33 33 1.000000
0.000926 -0.167011 0.041300 0.000000 0.000000 -1.000000 128 128 128 0.500000
-0.194204 -0.253580 0.041300 0.000000 0.000000 1.000000 128 128 128 0.500000
0.252814 0.515251 0.041300 0.000000 0.000000 -1.000000 128 128 128 0.500000
-0.047877 -0.580024 -0.256286 0.000000 1.000000 0.000000 33 33 33 1.000000
0.036015 -0.125288 0.041300 0.000000 0.000000 1.000000 128 128 128 0.500000
0.453685 0.324058 0.041300 0.000000 0.000000 -1.000000 128 128 128 0.500000
-0.453660 -0.186505 0.041300 0.000000 0.000000 1.000000 128 128 128 0.500000
-0.432211 -0.146395 -0.011938 0.084588 0.000000 0.996416 88 88 88 1.000000
-0.043634 0.019596 -0.109864 0.000000 0.000000 -1.000000 33 33 33 1.000000
0.244015 -0.580024 0.101875 0.000000 1.000000 0.000000 33 33 33 1.000000
0.647526 0.550235 0.041300 0.000000 0.000000 1.000000 128 128 128 0.500000
0.090397 -0.421418 -0.109864 0.000000 0.000000 -1.000000 33 33 33 1.000000
-0.258762 -0.396745 -0.023187 -0.052888 0.000000 -0.998600 33 33 33 1.000000
-0.073625 -0.556466 -0.073732 0.000000 1.000000 0.000000 33 33 33 1.000000
-0.036369 0.279011 -0.029169 0.014241 0.000000 0.999899 39 39 39 1.000000
-0.501665 -0.403334 -0.003839 0.000000 -1.000000 0.000000 33 33 33 1.000000
0.599324 0.181440 0.041300 0.000000 0.000000 1.000000 128 128 128 0.500000
0.461958 0.105954 0.041300 0.000000 0.000000 -1.000000 128 128 128 0.500000
0.765915 0.205199 0.041300 0.000000 0.000000 1.000000 128 128 128 0.500000
-0.735722 0.038147 0.041300 0.000000 0.000000 -1.000000 128 128 128 0.500000
-0.238224 0.175914 0.041300 0.000000 0.000000 -1.000000 128 128 128 0.500000
0.346346 -0.177963 0.041300 0.000000 0.000000 -1.000000 128 128 128 0.500000
-0.306304 -0.385855 0.041300 0.000000 0.000000 1.000000 33 33 33 1.000000
-0.792213 0.023577 0.032657 0.150378 0.000000 0.988629 96 96 96 1.000000
0.116581 0.237411 0.041300 0.000000 0.000000 1.000000 128 128 128 0.500000
0.214931 0.474790 -0.023193 0.048811 0.000000 -0.998808 33 33 33 1.000000
0.620336 0.078893 0.041300 0.000000 0.000000 1.000000 128 128 128 0.500000
0.162101 -0.152760 -0.025451 -0.037920 0.000000 0.999281 88 88 88 1.000000
-0.430895 0.408573 -0.012032 -0.084317 0.000000 -0.996439 33 33 33 1.000000
-0.212970 -0.580024 -0.237912 0.000000 1.000000 0.000000 33 33 33 1.000000
0.146798 -0.346522 0.041300 0.000000 0.000000 1.000000 128 128 128 0.500000
-0.091409 0.616523 0.033128 0.000000 -1.000000 0.000000 33 33 33 1.000000
0.215770 0.244024 -0.023157 0.048983 0.000000 -0.998800 33 33 33 1.000000
0.623796 -0.366425 0.041300 0.000000 0.000000 -1.000000 128 128 128 0.500000
0.025208 0.336128 -0.028706 -0.019091 0.000000 0.999818 53 53 53 1.000000
0.240456 0.047364 -0.022101 -0.054070 0.000000 0.998537 69 69 69 1.000000
-0.581195 0.524622 0.003083 0.115299 0.000000 0.993331 0 0 0 1.000000
0.482347 -0.373811 0.041300 0.000000 0.000000 1.000000 33 33 33 1.000000
0.802924 0.018264 0.041300 0.000000 0.000000 -1.000000 33 33 33 1.000000
-0.580958 -0.178526 0.003053 -0.115250 0.000000 -0.993336 33 33 33 1.000000
0.512452 0.227596 0.041300 0.000000 0.000000 -1.000000 128 128 128 0.500000
0.048028 -0.580024 0.032073 0.000000 -1.000000 0.000000 33 33 33 1.000000
0.684561 -0.207197 0.041300 0.000000 0.000000 -1.000000 128 128 128 0.500000
-0.353321 -0.376836 -0.017565 0.068333 0.000000 0.997663 78 78 78 1.000000
-0.541605 0.172392 -0.001102 -0.107143 0.000000 -0.994244 33 33 33 1.000000
0.027860 -0.580024 -0.119665 0.000000 1.000000 0.000000 33 33 33 1.000000
-0.119649 -0.268965 -0.027983 -0.014241 0.000000 -0.999899 33 33 33 1.000000
0.222680 0.442212 0.041300 0.000000 0.000000 1.000000 128 128 128 0.500000
-0.112427 0.564682 0.041300 0.000000 0.000000 1.000000 128 128 128 0.500000
-0.099739 -0.009060 0.041300 0.000000 0.000000 -1.000000 128 128 128 0.500000
0.024002 -0.308762 -0.028723 0.014241 0.000000 -0.999899 33 33 33 1.000000
-0.020557 -0.580024 -0.024199 0.000000 1.000000 0.000000 33 33 33 1.000000
0.505336 0.333016 0.041300 0.000000 0.000000 1.000000 128 128 128 0.500000
0.122650 -0.556466 0.085520 0.000000 1.000000 0.000000 33 33 33 1.000000
-0.269726 0.495003 0.041300 0.000000 0.000000 -1.000000 128 128 128 0.500000
0.199560 -0.556466 0.091497 0.000000 -1.000000 0.000000 255 255 255 1.000000
0.493238 -0.127198 -0.001569 0.106181 0.000000 -0.994347 33 33 33 1.000000
-0.377474 0.615047 0.041300 0.000000 0.000000 1.000000 33 33 33 1.000000
0.016342 -0.025967 -0.028832 0.014241 0.000000 -0.999899 33 33 33 1.000000
-0.545181 0.303141 -0.000744 0.107880 0.000000 0.994164 78 78 78 1.000000
-0.311392 -0.127652 0.041300 0.000000 0.000000 -1.000000 128 128 128 0.500000
-0.261444 -0.556466 -0.071719 0.000000 -1.000000 0.000000 255 255 255 1.000000
-0.224094 -0.048848 0.041300 0.000000 0.000000 -1.000000 128 128 128 0.500000
-0.072856 -0.556466 0.082637 0.000000 -1.000000 0.000000 255 255 255 1.000000
-0.443850 -0.403334 -0.003025 0.000000 1.000000 0.000000 33 33 33 1.000000
0.226383 0.616523 0.003332 0.000000 1.000000 0.000000 33 33 33 1.000000
-0.661823 0.097567 0.013475 -0.131928 0.000000 -0.991259 33 33 33 1.000000
0.105131 0.334736 0.041300 0.000000 0.000000 -1.000000 128 128 128 0.500000
-0.635197 0.508252 0.041300 0.000000 0.000000 -1.000000 128 128 128 0.500000
0.389731 -0.368881 0.041300 0.000000 0.000000 1.000000 128 128 128 0.500000
0.683027 0.211656 0.041300 0.000000 0.000000 1.000000 128 128 128 0.500000
0.608943 0.359045 0.012291 -0.130035 0.000000 0.991509 89 89 89 1.000000
-0.517149 0.151637 0.041300 0.000000 0.000000 -1.000000 128 128 128 0.500000
0.513432 0.473426 0.041300 0.000000 0.000000 1.000000 128 128 128 0.500000
0.115777 -0.529247 -0.058723 0.995292 0.000000 0.096926 33 33 33 1.000000
0.132373 -0.556466 0.035845 0.000000 -1.000000 0.000000 255 255 255 1.000000
-0.510132 -0.187783 -0.004250 -0.100659 0.000000 -0.994921 33 33 33 1.000000
-0.741481 -0.056828 0.024644 -0.145142 0.000000 -0.989411 33 33 33 1.000000
0.129705 0.616523 0.023641 0.000000 1.000000 0.000000 33 33 33 1.000000
-0.221988 -0.366036 0.041300 0.000000 0.000000 -1.000000 128 128 128 0.500000
0.011077 0.103645 -0.109864 0.000000 0.000000 1.000000 33 33 33 1.000000
-0.025308 0.044908 0.041300 0.000000 0.000000 1.000000 128 128 128 0.500000
0.147304 0.305602 -0.026084 0.034869 0.000000 -0.999392 33 33 33 1.000000
-0.149988 0.336386 0.041300 0.000000 0.000000 -1.000000 128 128 128 0.500000
-0.331431 0.268021 0.041300 0.000000 0.000000 -1.000000 128 128 128 0.500000
-0.311825 0.087489 0.041300 0.000000 0.000000 -1.000000 128 128 128 0.500000
-0.012477 -0.580024 0.119681 0.000000 -1.000000 0.000000 33 33 33 1.000000
-0.598236 -0.403334 0.037196 0.000000 -1.000000 0.000000 33 33 33 1.000000
0.093537 0.103229 -0.109864 0.000000 0.000000 1.000000 33 33 33 1.000000
-0.101332 -0.580024 -0.110854 0.000000 1.000000 0.000000 33 33 33 1.000000
-0.316321 -0.034117 -0.020204 -0.060702 0.000000 -0.998156 33 33 33 1.000000
0.529422 0.133890 0.041300 0.000000 0.000000 1.000000 128 128 128 0.500000
0.523491 0.027592 0.041300 0.000000 0.000000 -1.000000 128 128 128 0.500000
-0.059164 -0.333005 0.041300 0.000000 0.000000 1.000000 128 128 128 0.500000
0.267943 -0.230631 0.041300 0.000000 0.000000 -1.000000 128 128 128 0.500000
0.540846 -0.271861 0.041300 0.000000 0.000000 -1.000000 128 128 128 0.500000
0.757572 -0.055327 0.034087 0.151312 0.000000 -0.988486 33 33 33 1.000000
0.198924 -0.556466 0.042697 0.000000 -1.000000 0.000000 255 255 255 1.000000
-0.337740 0.616523 0.008535 0.000000 -1.000000 0.000000 33 33 33 1.000000
0.072165 -0.392475 -0.028037 0.014241 0.000000 -0.999899 33 33 33 1.000000
-0.162937 -0.580024 0.089398 0.000000 1.000000 0.000000 33 33 33 1.000000
-0.161161 0.121006 0.041300 0.000000 0.000000 -1.000000 128 128 128 0.500000
-0.106565 -0.132857 -0.028170 0.014241 0.000000 0.999899 88 88 88 1.000000
0.015988 0.225516 0.041300 0.000000 0.000000 -1.000000 128 128 128 0.500000
-0.121685 0.106594 -0.108121 0.000000 1.000000 0.000000 33 33 33 1.000000
0.115777 0.011985 -0.078670 -0.995293 0.000000 0.096913 15 15 15 0.680000
0.320081 0.598997 -0.016820 0.070488 0.000000 -0.997513 33 33 33 1.000000
0.105522 0.047488 0.041300 0.000000 0.000000 -1.000000 128 128 128 0.500000
0.501829 0.438619 -0.000710 -0.107950 0.000000 0.994156 85 85 85 1.000000
0.058041 -0.205270 -0.109864 0.000000 0.000000 -1.000000 33 33 33 1.000000
-0.494068 -0.354004 0.041300 0.000000 0.000000 -1.000000 128 128 128 0.500000
0.706510 0.005652 0.026022 0.146043 0.000000 -0.989278 33 33 33 1.000000
0.204822 -0.580024 -0.120665 0.000000 1.000000 0.000000 33 33 33 1.000000
0.307602 0.425586 0.041300 0.000000 0.000000 1.000000 128 128 128 0.500000
0.489033 0.307191 -0.001990 0.105315 0.000000 -0.994439 33 33 33 1.000000
-0.482773 0.296214 0.041300 0.000000 0.000000 1.000000 128 128 128 0.500000
-0.431961 0.588996 -0.011956 0.084536 0.000000 0.996420 68 68 68 1.000000
-0.194419 -0.105202 -0.025937 0.046259 0.000000 0.998930 92 92 92 1.000000
0.467691 0.415737 0.041300 0.000000 0.000000 1.000000 128 128 128 0.500000
-0.524006 -0.045168 0.041300 0.000000 0.000000 -1.000000 128 128 128 0.500000
0.382988 0.596884 0.041300 0.000000 0.000000 -1.000000 33 33 33 1.000000
-0.498547 0.516506 0.041300 0.000000 0.000000 -1.000000 128 128 128 0.500000
-0.573557 0.098101 0.002099 -0.113722 0.000000 -0.993513 33 33 33 1.000000
0.334220 0.096124 -0.015811 0.073402 0.000000 -0.997302 33 33 33 1.000000
-0.163296 -0.128792 0.041300 0.000000 0.000000 1.000000 128 128 128 0.500000
-0.167838 -0.580024 -0.060434 0.000000 -1.000000 0.000000 33 33 33 1.000000
-0.292418 -0.213920 0.041300 0.000000 0.000000 1.000000 128 128 128 0.500000
-0.122430 0.136864 -0.027944 -0.014241 0.000000 -0.999899 33 33 33 1.000000
0.389621 0.169462 -0.011859 0.084815 0.000000 -0.996397 33 33 33 1.000000
-0.729526 0.346428 0.022756 -0.143908 0.000000 -0.989591 33 33 33 1.000000
0.226122 -0.246424 -0.022714 0.051117 0.000000 -0.998693 33 33 33 1.000000
0.381679 -0.214871 -0.012426 -0.083180 0.000000 0.996535 95 95 95 1.000000
-0.497707 0.473577 -0.005493 0.098097 0.000000 0.995177 87 87 87 1.000000
0.720226 0.616523 0.033457 0.000000 -1.000000 0.000000 33 33 33 1.000000
-0.266467 -0.580024 -0.234455 0.000000 -1.000000 0.000000 33 33 33 1.000000
0.559901 -0.062803 0.005970 -0.119922 0.000000 0.992783 24 24 24 1.000000
-0.556686 -0.117328 0.000407 -0.110249 0.000000 -0.993904 33 33 33 1.000000
-0.242179 0.300536 0.041300 0.000000 0.000000 1.000000 128 128 128 0.500000
0.419525 -0.275908 0.041300 0.000000 0.000000 1.000000 128 128 128 0.500000
-0.636120 0.308474 0.041300 0.000000 0.000000 -1.000000 128 128 128 0.500000
0.444125 0.463506 -0.006482 -0.096058 0.000000 0.995376 82 82 82 1.000000
-0.263303 -0.580024 0.089114 0.000000 1.000000 0.000000 33 33 33 1.000000
0.458102 0.570949 0.041300 0.000000 0.000000 1.000000 128 128 128 0.500000
-0.644381 0.603859 0.041300 0.000000 0.000000 -1.000000 33 33 33 1.000000
0.253372 0.153353 -0.021549 0.056731 0.000000 -0.998390 33 33 33 1.000000
0.578770 0.425989 0.041300 0.000000 0.000000 1.000000 128 128 128 0.500000
0.567540 0.562284 0.041300 0.000000 0.000000 -1.000000 128 128 128 0.500000
0.122744 0.073498 -0.027134 0.029805 0.000000 -0.999556 33 33 33 1.000000
0.279124 -0.572776 0.022931 -1.000000 0.000000 0.000000 33 33 33 1.000000
-0.519737 0.605711 -0.003289 -0.102638 0.000000 -0.994719 33 33 33 1.000000
0.148137 -0.283199 -0.026048 0.035041 0.000000 -0.999386 33 33 33 1.000000
-0.341246 -0.268401 -0.018427 -0.065843 0.000000 -0.997830 33 33 33 1.000000
0.349028 -0.070803 -0.014755 0.076454 0.000000 -0.997073 33 33 33 1.000000
0.052410 -0.262781 -0.028319 0.014241 0.000000 -0.999899 33 33 33 1.000000
0.288204 0.311492 -0.019093 0.063915 0.000000 -0.997955 33 33 33 1.000000
-0.008247 -0.447244 -0.026342 -0.009249 -0.999957 0.000137 175 175 175 1.000000
-0.358989 0.304855 -0.017161 -0.069501 0.000000 -0.997582 33 33 33 1.000000
-0.159652 -0.359735 -0.069203 0.999972 0.000000 -0.007461 33 33 33 1.000000
0.452493 0.514004 -0.005645 -0.097784 0.000000 0.995208 94 94 94 1.000000
0.606980 0.262930 0.012038 -0.129630 0.000000 0.991562 56 56 56 1.000000
-0.075833 0.307708 -0.028607 0.014241 0.000000 0.999899 95 95 95 1.000000
-0.259398 -0.160169 -0.023160 -0.052954 0.000000 -0.998597 33 33 33 1.000000
0.756041 0.528471 0.033845 0.151154 0.000000 -0.988510 33 33 33 1.000000
0.156442 -0.053116 -0.025693 0.036753 0.000000 -0.999324 33 33 33 1.000000
0.522112 0.616523 0.002196 0.000000 -1.000000 0.000000 33 33 33 1.000000
0.461569 -0.091409 -0.004737 0.099655 0.000000 -0.995022 33 33 33 1.000000
-0.448667 0.044679 0.041300 0.000000 0.000000 -1.000000 128 128 128 0.500000
0.445937 0.358001 -0.006300 -0.096432 0.000000 0.995340 89 89 89 1.000000
-0.033845 -0.533431 -0.109864 0.000000 0.000000 1.000000 33 33 33 1.000000
0.732190 0.437344 0.041300 0.000000 0.000000 -1.000000 128 128 128 0.500000
-0.502816 0.028191 -0.004982 -0.099151 0.000000 -0.995072 33 33 33 1.000000
-0.024975 -0.222203 -0.109864 0.000000 0.000000 -1.000000 33 33 33 1.000000
0.077081 0.444535 -0.027967 -0.023678 0.000000 0.999720 90 90 90 1.000000
0.559348 -0.214242 0.005899 0.119808 0.000000 -0.992797 33 33 33 1.000000
0.698286 -0.085925 0.024723 0.145194 0.000000 -0.989403 33 33 33 1.000000
-0.284808 -0.580024 -0.172825 0.000000 1.000000 0.000000 33 33 33 1.000000
-0.034157 -0.261877 0.041300 0.000000 0.000000 -1.000000 128 128 128 0.500000
0.435818 -0.395015 -0.007313 0.094345 0.000000 -0.995540 33 33 33 1.000000
-0.650880 -0.272245 0.041300 0.000000 0.000000 1.000000 128 128 128 0.500000
-0.185414 -0.351223 -0.026322 -0.045331 0.000000 -0.998972 33 33 33 1.000000
-0.745373 -0.369924 0.041300 0.000000 0.000000 -1.000000 128 128 128 0.500000
-0.022797 0.134685 0.041300 0.000000 0.000000 1.000000 128 128 128 0.500000
-0.329859 0.029899 -0.019239 0.063494 0.000000 0.997982 85 85 85 1.000000
0.590154 0.508601 0.009869 0.126162 0.000000 -0.992010 33 33 33 1.000000
-0.052114 -0.373264 -0.028945 0.014241 0.000000 0.999899 93 93 93 1.000000
-0.129280 0.616523 -0.005192 0.000000 1.000000 0.000000 33 33 33 1.000000
0.268407 0.412276 -0.020505 0.059832 0.000000 -0.998208 33 33 33 1.000000
-0.597953 -0.263156 0.005243 -0.118758 0.000000 -0.992923 33 33 33 1.000000
0.498137 0.379406 0.041300 0.000000 0.000000 1.000000 128 128 128 0.500000
-0.631170 -0.358718 0.041300 0.000000 0.000000 -1.000000 128 128 128 0.500000
-0.658912 -0.029874 0.013100 -0.131328 0.000000 -0.991339 33 33 33 1.000000
0.129427 -0.580024 -0.177301 0.000000 1.000000 0.000000 33 33 33 1.000000
-0.013625 -0.046686 -0.109864 0.000000 0.000000 -1.000000 33 33 33 1.000000
-0.213005 -0.153969 -0.025143 0.048174 0.000000 0.998839 90 90 90 1.000000
0.644366 0.460438 0.016856 -0.137331 0.000000 0.990525 2 2 2 1.000000
-0.177754 -0.188039 -0.026650 0.044541 0.000000 0.999008 87 87 87 1.000000
0.107732 -0.247308 -0.061242 1.000000 0.000000 0.000000 33 33 33 1.000000
-0.434198 -0.231287 -0.011796 -0.084997 0.000000 -0.996381 33 33 33 1.000000
0.234610 -0.556466 -0.272186 0.000000 1.000000 0.000000 33 33 33 1.000000
0.707509 0.049761 0.041300 0.000000 0.000000 -1.000000 128 128 128 0.500000
-0.358784 -0.242971 0.041300 0.000000 0.000000 1.000000 128 128 128 0.500000
-0.538824 -0.248121 0.041300 0.000000 0.000000 -1.000000 128 128 128 0.500000
0.030978 0.572241 0.041300 0.000000 0.000000 -1.000000 128 128 128 0.500000
0.063053 -0.524000 -0.109864 0.000000 0.000000 -1.000000 33 33 33 1.000000
-0.218007 -0.580024 0.135240 0.000000 1.000000 0.000000 33 33 33 1.000000
0.294803 0.170585 0.041300 0.000000 0.000000 -1.000000 128 128 128 0.500000
0.355303 0.510400 0.041300 0.000000 0.000000 1.000000 128 128 128 0.500000
0.104229 0.374085 -0.027581 0.021711 0.000000 -0.999764 33 33 33 1.000000
-0.143748 -0.057796 -0.056524 0.004956 -0.937492 0.347971 33 33 33 1.000000
0.134294 -0.556466 -0.113205 0.000000 1.000000 0.000000 33 33 33 1.000000
-0.678292 -0.362882 0.041300 0.000000 0.000000 -1.000000 128 128 128 0.500000
-0.178053 0.494446 0.041300 0.000000 0.000000 1.000000 128 128 128 0.500000
-0.571432 0.171346 0.041300 0.000000 0.000000 1.000000 128 128 128 0.500000
-0.238595 0.457686 -0.024049 0.050811 0.000000 0.998708 64 64 64 1.000000
0.627390 0.014117 0.041300 0.000000 0.000000 1.000000 128 128 128 0.500000
-0.117885 -0.268439 -0.109864 0.000000 0.000000 1.000000 33 33 33 1.000000
-0.009470 0.119515 -0.029200 0.014602 0.000000 -0.999893 33 33 33 1.000000
-0.046654 -0.289959 -0.109864 0.000000 0.000000 1.000000 33 33 33 1.000000
0.186487 0.386989 0.041300 0.000000 0.000000 -1.000000 128 128 128 0.500000
0.211294 -0.053847 0.041300 0.000000 0.000000 -1.000000 128 128 128 0.500000
-0.404431 0.340946 0.041300 0.000000 0.000000 1.000000 128 128 128 0.500000
0.474541 0.263264 -0.003439 -0.102329 0.000000 0.994751 71 71 71 1.000000
0.487422 -0.099650 0.041300 0.000000 0.000000 1.000000 128 128 128 0.500000
0.556628 -0.366719 0.041300 0.000000 0.000000 -1.000000 128 128 128 0.500000
0.692379 0.130155 0.041300 0.000000 0.000000 -1.000000 128 128 128 0.500000
0.396130 0.319778 -0.011282 -0.086157 0.000000 0.996282 24 24 24 1.000000
-0.030691 -0.556466 0.014254 0.000000 -1.000000 0.000000 255 255 255 1.000000
-0.185822 0.599243 0.041300 0.000000 0.000000 1.000000 33 33 33 1.000000
0.376643 -0.403334 -0.006914 0.000000 -1.000000 0.000000 33 33 33 1.000000
0.532619 0.208840 0.002454 0.114291 0.000000 -0.993447 33 33 33 1.000000
0.351776 0.451868 -0.014559 -0.077020 0.000000 0.997030 48 48 48 1.000000
0.240458 -0.320702 0.041300 0.000000 0.000000 1.000000 128 128 128 0.500000
-0.159502 -0.441763 -0.075412 0.998227 0.000000 0.059526 33 33 33 1.000000
-0.562546 0.549705 0.041300 0.000000 0.000000 1.000000 128 128 128 0.500000
-0.386046 0.380291 -0.015231 -0.075078 0.000000 -0.997178 33 33 33 1.000000
-0.738645 -0.240450 0.041300 0.000000 0.000000 1.000000 128 128 128 0.500000
0.283282 0.258271 0.041300 0.000000 0.000000 1.000000 128 128 128 0.500000
-0.131105 0.362073 -0.027820 0.014241 0.000000 0.999899 74 74 74 1.000000
0.181314 0.554590 0.041300 0.000000 0.000000 1.000000 128 128 128 0.500000
-0.332552 -0.303694 0.041300 0.000000 0.000000 1.000000 128 128 128 0.500000
0.011001 0.481231 0.041300 0.000000 0.000000 -1.000000 128 128 128 0.500000
-0.722270 0.154482 0.021610 0.143159 0.000000 0.989700 55 55 55 1.000000
0.041822 -0.580024 -0.025688 0.000000 1.000000 0.000000 33 33 33 1.000000
0.023961 -0.142714 -0.109864 0.000000 0.000000 1.000000 33 33 33 1.000000
-0.007520 -0.379930 -0.109864 0.000000 0.000000 -1.000000 33 33 33 1.000000
0.061989 -0.095122 -0.109864 0.000000 0.000000 1.000000 33 33 33 1.000000
-0.059057 0.388098 0.041300 0.000000 0.000000 -1.000000 128 128 128 0.500000
-0.635362 0.134065 0.041300 0.000000 0.000000 1.000000 128 128 128 0.500000
-0.249776 0.364978 -0.023571 -0.051963 0.000000 -0.998649 33 33 33 1.000000
0.082486 -0.580024 0.119787 0.000000 1.000000 0.000000 33 33 33 1.000000
0.046791 0.072337 0.041300 0.000000 0.000000 1.000000 128 128 128 0.500000
-0.051853 -0.580024 -0.160309 0.000000 1.000000 0.000000 33 33 33 1.000000
-0.800371 -0.097147 0.041300 0.000000 0.000000 1.000000 128 128 128 0.500000
-0.593425 -0.059944 0.004660 -0.117823 0.000000 -0.993035 33 33 33 1.000000
0.035095 0.400202 0.041300 0.000000 0.000000 -1.000000 128 128 128 0.500000
-0.277045 0.118783 0.041300 0.000000 0.000000 1.000000 128 128 128 0.500000
-0.334279 0.162189 0.041300 0.000000 0.000000 -1.000000 128 128 128 0.500000
-0.648579 0.052921 0.011768 -0.129199 0.000000 -0.991619 33 33 33 1.000000
0.631643 -0.061411 0.041300 0.000000 0.000000 1.000000 128 128 128 0.500000
0.194333 -0.330577 -0.024073 -0.044565 0.000000 0.999006 86 86 86 1.000000
0.087552 -0.112720 0.041300 0.000000 0.000000 1.000000 128 128 128 0.500000
0.442335 0.278216 0.041300 0.000000 0.000000 -1.000000 128 128 128 0.500000
0.043966 0.616523 0.008585 0.000000 -1.000000 0.000000 33 33 33 1.000000
-0.104749 -0.474408 -0.109864 0.000000 0.000000 1.000000 33 33 33 1.000000
-0.258542 0.177350 -0.023196 0.052866 0.000000 0.998602 84 84 84 1.000000
-0.280723 -0.290017 0.041300 0.000000 0.000000 1.000000 128 128 128 0.500000
0.266369 -0.043971 -0.020651 -0.059411 0.000000 0.998234 100 100 100 1.000000
0.156526 -0.580024 0.112493 0.000000 -1.000000 0.000000 33 33 33 1.000000
-0.429691 0.086410 -0.012118 -0.084069 0.000000 -0.996460 33 33 33 1.000000
0.279079 -0.556466 -0.231425 0.000000 -1.000000 0.000000 255 255 255 1.000000
-0.415049 0.288711 -0.013162 -0.081054 0.000000 -0.996710 33 33 33 1.000000
0.113040 -0.377881 0.041300 0.000000 0.000000 1.000000 33 33 33 1.000000
0.685650 0.252959 0.022727 -0.143889 0.000000 0.989594 74 74 74 1.000000
0.072693 -0.118224 -0.028030 -0.014241 0.000000 0.999899 35 35 35 1.000000
-0.346662 0.530830 0.041300 0.000000 0.000000 -1.000000 128 128 128 0.500000
0.164748 -0.580024 0.014540 0.000000 -1.000000 0.000000 33 33 33 1.000000
-0.833212 -0.403126 0.039133 0.154606 0.000000 0.987976 87 87 87 1.000000
-0.571588 0.314813 0.041300 0.000000 0.000000 1.000000 128 128 128 0.500000
0.091739 -0.556466 -0.096614 0.000000 1.000000 0.000000 33 33 33 1.000000
0.201238 0.064346 0.041300 0.000000 0.000000 1.000000 128 128 128 0.500000
0.085402 -0.214281 0.041300 0.000000 0.000000 1.000000 128 128 128 0.500000
0.307143 -0.206807 -0.017742 -0.067820 0.000000 0.997698 8 8 8 1.000000
-0.301085 -0.580024 -0.024262 0.000000 1.000000 0.000000 33 33 33 1.000000
-0.173432 -0.009063 -0.026835 0.044096 0.000000 0.999027 72 72 72 1.000000
-0.230053 0.572671 0.041300 0.000000 0.000000 1.000000 128 128 128 0.500000
0.549633 -0.187462 0.041300 0.000000 0.000000 -1.000000 128 128 128 0.500000
0.579728 0.016396 0.041300 0.000000 0.000000 1.000000 128 128 128 0.500000
-0.118343 0.375956 0.041300 0.000000 0.000000 -1.000000 128 128 128 0.500000
-0.302664 -0.556466 -0.108698 0.000000 1.000000 0.000000 33 33 33 1.000000
-0.705723 -0.106883 0.019133 0.140966 0.000000 0.990014 65 65 65 1.000000
0.034195 0.033132 -0.109864 0.000000 0.000000 -1.000000 33 33 33 1.000000
0.341615 0.104971 0.041300 0.000000 0.000000 1.000000 128 128 128 0.500000
-0.549060 -0.379026 -0.000356 -0.108679 0.000000 -0.994077 33 33 33 1.000000
-0.077831 -0.114005 -0.109864 0.000000 0.000000 1.000000 33 33 33 1.000000
-0.193452 0.420705 -0.025979 -0.046159 0.000000 -0.998934 33 33 33 1.000000
-0.081551 0.473516 0.041300 0.000000 0.000000 -1.000000 128 128 128 0.500000
-0.150015 0.519641 -0.027551 -0.014241 0.000000 -0.999899 33 33 33 1.000000
-0.003061 -0.109036 -0.029109 -0.014241 0.000000 0.999899 81 81 81 1.000000
0.525239 -0.025926 0.001632 0.112770 0.000000 -0.993621 33 33 33 1.000000
-0.293887 0.221453 0.041300 0.000000 0.000000 1.000000 128 128 128 0.500000
0.735110 -0.359430 0.041300 0.000000 0.000000 -1.000000 128 128 128 0.500000
0.474825 0.083786 -0.003411 -0.102387 0.000000 0.994745 75 75 75 1.000000
0.666560 0.410971 0.019717 -0.141899 0.000000 0.989881 5 5 5 1.000000
0.205019 -0.065612 -0.023616 0.046768 0.000000 -0.998906 33 33 33 1.000000
0.061342 -0.403334 0.015303 0.000000 -1.000000 0.000000 33 33 33 1.000000
-0.637559 0.462531 0.041300 0.000000 0.000000 1.000000 128 128 128 0.500000
0.251854 -0.078856 0.041300 0.000000 0.000000 1.000000 128 128 128 0.500000
-0.694804 0.565909 0.041300 0.000000 0.000000 1.000000 128 128 128 0.500000
0.558916 -0.303705 0.005843 -0.119719 0.000000 0.992808 103 103 103 1.000000
-0.425229 0.132217 0.041300 0.000000 0.000000 -1.000000 128 128 128 0.500000
-0.292979 -0.195748 -0.021724 -0.056413 0.000000 -0.998408 33 33 33 1.000000
0.180677 -0.556466 -0.234760 0.000000 -1.000000 0.000000 255 255 255 1.000000
-0.729258 0.616523 0.024445 0.000000 -1.000000 0.000000 33 33 33 1.000000
-0.590583 0.017823 0.041300 0.000000 0.000000 1.000000 128 128 128 0.500000
0.233063 -0.556466 -0.037801 0.000000 -1.000000 0.000000 255 255 255 1.000000
-0.483573 0.142924 -0.006906 -0.095183 0.000000 -0.995460 33 33 33 1.000000
0.517285 0.392928 0.000836 -0.111133 0.000000 0.993806 47 47 47 1.000000
-0.805223 0.109162 0.041300 0.000000 0.000000 1.000000 128 128 128 0.500000
-0.582116 0.593885 0.041300 0.000000 0.000000 -1.000000 33 33 33 1.000000
0.028846 -0.372520 -0.028654 -0.014241 0.000000 0.999899 77 77 77 1.000000
-0.383952 0.440773 0.041300 0.000000 0.000000 -1.000000 128 128 128 0.500000
-0.688253 0.178166 0.041300 0.000000 0.000000 -1.000000 128 128 128 0.500000
0.071305 0.106594 -0.067827 0.000000 -1.000000 0.000000 29 29 29 1.000000
-0.169935 -0.270467 -0.026984 -0.043736 0.000000 -0.999043 33 33 33 1.000000
-0.150960 -0.093102 -0.030812 -0.914492 0.000000 0.404604 33 33 33 1.000000
-0.207318 0.244290 0.041300 0.000000 0.000000 -1.000000 128 128 128 0.500000
0.057189 -0.501872 -0.028251 0.014241 0.000000 -0.999899 33 33 33 1.000000
-0.797384 0.297229 0.033474 -0.150911 0.000000 -0.988547 33 33 33 1.000000
-0.179576 -0.043074 0.041300 0.000000 0.000000 -1.000000 128 128 128 0.500000
-0.579295 0.393337 0.041300 0.000000 0.000000 -1.000000 128 128 128 0.500000
0.150193 0.472683 0.041300 0.000000 0.000000 -1.000000 128 128 128 0.500000
-0.094837 -0.305522 -0.028337 -0.014241 0.000000 -0.999899 33 33 33 1.000000
0.698623 0.484196 0.024776 -0.145229 0.000000 0.989398 91 91 91 1.000000
