ply
format ascii 1.0
element vertex 1250
property float x
property float y
property float z
property uchar red
property uchar green
property uchar blue
end_header
0.020509 0.235305 -0.004730 76 153 0
0.510470 0.580391 -0.004730 76 153 0
0.462647 0.819649 0.090074 127 127 0
-0.039933 -0.053315 -0.004730 76 153 0
-0.028658 -0.916408 -0.071765 127 127 0
0.854162 0.223805 -0.004730 76 153 0
0.286408 0.339029 -0.004730 76 153 0
-0.921521 -0.261186 -0.047934 127 127 0
-0.485875 -0.209623 -0.004730 76 153 0
0.296288 0.935601 -0.068573 127 127 0
0.778674 -0.064293 -0.004730 76 153 0
0.043147 -0.156589 -0.004730 76 153 0
0.502221 -0.496996 -0.004730 76 153 0
0.816846 0.490902 -0.054423 127 127 0
-0.971461 0.011501 -0.053596 127 127 0
-0.945474 0.257888 -0.041360 127 127 0
0.304453 -0.089316 -0.004730 76 153 0
0.215895 -0.311741 -0.004730 76 153 0
-0.155989 0.945242 -0.047598 127 127 0
-0.017278 0.026685 -0.004730 76 153 0
-0.727459 -0.552338 -0.106284 127 127 0
-0.628138 -0.185457 -0.004730 76 153 0
-0.822223 0.004077 -0.004730 76 153 0
0.672002 0.250535 -0.004730 76 153 0
0.345718 0.045880 -0.004730 76 153 0
0.842226 0.403406 0.112040 127 127 0
-0.562850 -0.727145 0.112040 127 127 0
-0.575530 0.342106 -0.004730 76 153 0
-0.163772 -0.868823 0.037086 127 127 0
-0.123804 -0.872759 0.094789 127 127 0
0.758792 0.184775 -0.004730 76 153 0
-0.922706 0.211136 -0.043664 127 127 0
0.746313 0.052739 0.006864 76 153 0
0.320671 -0.139994 -0.004730 76 153 0
0.303166 0.911018 -0.106284 127 127 0
-0.133054 0.964473 0.112040 127 127 0
-0.512294 0.297222 -0.004730 76 153 0
-0.890315 -0.348339 -0.090658 127 127 0
-0.328334 0.385342 -0.004730 76 153 0
0.903030 0.273501 0.057991 127 127 0
-0.682848 0.627236 -0.004730 76 153 0
-0.403002 -0.072494 -0.004730 76 153 0
0.892654 0.133415 0.090917 127 127 0
-0.744521 -0.109314 -0.004730 76 153 0
-0.880595 -0.317952 -0.106284 127 127 0
0.470160 -0.621329 -0.004730 76 153 0
-0.594137 -0.418723 -0.004730 76 153 0
0.611447 -0.630515 0.033089 127 127 0
0.631335 0.521515 -0.004730 76 153 0
-0.109326 0.333150 -0.004730 76 153 0
-0.419212 -0.107749 -0.004730 76 153 0
-0.473717 -0.579697 -0.004730 76 153 0
-0.758396 -0.559475 -0.082930 127 127 0
-0.954635 0.227691 0.093129 127 127 0
-0.631544 0.221676 -0.004730 76 153 0
-0.742368 -0.238305 -0.004730 76 153 0
-0.079307 -0.097081 -0.004730 76 153 0
0.022048 -0.364565 -0.004730 76 153 0
-0.276534 -0.841735 -0.063605 127 127 0
-0.424420 -0.823266 0.112002 127 127 0
-0.242312 0.192241 -0.004730 76 153 0
0.528601 -0.272606 -0.004730 76 153 0
0.568127 -0.204258 -0.004730 76 153 0
-0.968989 -0.013604 -0.080970 127 127 0
-0.389799 0.878747 0.045434 127 127 0
0.892841 0.017546 -0.004730 76 153 0
-0.675200 -0.632657 -0.106284 127 127 0
-0.436893 -0.043913 -0.004730 76 153 0
-0.771323 0.565602 -0.006039 127 127 0
0.851216 -0.350944 -0.087507 127 127 0
0.884197 0.218070 -0.010972 76 153 0
0.049760 0.100321 -0.004730 76 153 0
0.091669 -0.262745 -0.004730 76 153 0
0.577097 0.734354 0.096046 127 127 0
0.568599 0.173042 -0.004730 76 153 0
-0.512160 0.813338 -0.094288 127 127 0
0.511271 0.788368 0.005551 127 127 0
-0.122755 0.011429 -0.004730 76 153 0
-0.967860 -0.025071 0.025145 127 127 0
-0.173902 0.092187 -0.004730 76 153 0
0.389418 -0.219567 -0.004730 76 153 0
-0.861266 0.356385 -0.004730 76 153 0
0.926113 -0.066088 0.087885 127 127 0
0.337046 -0.065302 -0.004730 76 153 0
0.081420 0.904303 -0.004730 76 153 0
-0.963939 0.140534 0.064953 127 127 0
-0.041495 -0.226828 -0.004730 76 153 0
0.570430 -0.694061 -0.106284 127 127 0
-0.707562 0.021670 0.006864 76 153 0
-0.684419 0.721340 0.079887 127 127 0
0.920770 -0.120341 -0.051324 127 127 0
0.290342 -0.861752 0.077423 127 127 0
-0.753875 0.640636 0.065840 127 127 0
0.097439 0.947294 0.092962 127 127 0
-0.049732 -0.723141 -0.004730 76 153 0
0.850569 -0.252717 -0.004730 127 127 0
0.463929 -0.219017 -0.004730 76 153 0
-0.788837 -0.114203 -0.004730 76 153 0
-0.406277 0.520443 -0.004730 76 153 0
0.071615 0.543941 -0.004730 76 153 0
0.835455 -0.303406 0.112040 127 127 0
-0.662527 0.305735 -0.004730 76 153 0
0.846451 -0.266852 -0.067696 127 127 0
0.575360 0.711813 -0.004730 76 153 0
0.606756 -0.678482 0.032606 127 127 0
-0.691960 -0.586668 0.033135 127 127 0
0.806959 -0.433748 -0.035912 127 127 0
0.202709 -0.539880 -0.004730 76 153 0
-0.879794 0.356891 -0.031658 127 127 0
-0.727382 0.672914 -0.030299 127 127 0
-0.291601 0.465417 -0.004730 76 153 0
-0.622953 0.771789 0.061121 127 127 0
0.064393 -0.421502 -0.004730 76 153 0
0.582456 -0.249175 -0.004730 76 153 0
0.380666 0.050252 -0.004730 76 153 0
0.923760 -0.089975 0.058098 127 127 0
0.011012 0.990085 -0.020614 127 127 0
0.734836 0.369098 -0.004730 76 153 0
-0.322185 0.569944 -0.004730 76 153 0
-0.674314 -0.336838 -0.004730 76 153 0
0.739947 -0.363384 -0.004730 76 153 0
0.133503 0.512307 -0.004730 76 153 0
0.715703 -0.565550 0.025949 127 127 0
0.901912 0.036245 -0.020816 127 127 0
0.677823 0.687355 -0.006251 127 127 0
0.648728 -0.644033 0.077861 127 127 0
0.060652 -0.909544 -0.051737 127 127 0
-0.708592 -0.620155 0.003363 127 127 0
0.150849 0.278948 -0.004730 76 153 0
0.146267 -0.866833 -0.011514 127 127 0
0.309065 0.105646 -0.004730 76 153 0
0.842344 0.443196 0.011266 127 127 0
0.129828 0.472938 -0.004730 76 153 0
0.491341 0.804310 -0.053733 127 127 0
0.821541 0.409756 -0.050617 127 127 0
0.131644 -0.127094 -0.004730 76 153 0
-0.971909 0.016050 0.089090 127 127 0
-0.583936 0.784853 0.112040 127 127 0
-0.588599 0.201589 -0.004730 76 153 0
-0.329992 -0.825519 -0.042095 127 127 0
0.917371 0.226231 0.040439 127 127 0
0.906500 0.220902 -0.106284 127 127 0
0.604682 -0.636066 -0.037411 127 127 0
-0.207911 0.913259 -0.004730 76 153 0
0.509069 -0.362045 -0.004730 76 153 0
-0.340039 -0.858115 0.100375 127 127 0
-0.018357 0.434563 -0.004730 76 153 0
0.352318 -0.040264 -0.004730 76 153 0
-0.387274 0.880097 -0.090060 127 127 0
-0.564012 0.412458 -0.004730 76 153 0
-0.318457 -0.779668 -0.004730 76 153 0
0.499335 -0.643318 -0.004730 76 153 0
-0.963080 -0.073600 0.091179 127 127 0
0.209277 -0.886346 -0.082829 127 127 0
0.386381 -0.498842 -0.004730 76 153 0
-0.587684 0.752426 -0.004730 127 127 0
-0.720535 0.627496 -0.021562 127 127 0
0.013151 0.761338 -0.004730 76 153 0
-0.324412 -0.862856 -0.022578 127 127 0
-0.708039 0.284575 -0.004730 76 153 0
0.368174 0.252657 -0.004730 76 153 0
-0.753294 -0.010124 -0.004730 76 153 0
-0.164437 -0.560837 -0.004730 76 153 0
-0.892512 -0.142421 -0.004730 76 153 0
-0.442205 -0.784146 0.112040 127 127 0
0.081099 0.983183 0.049651 127 127 0
0.449574 0.860752 -0.106284 127 127 0
-0.968140 -0.022226 -0.099271 127 127 0
-0.774711 -0.398126 -0.004730 76 153 0
-0.522873 0.837401 0.112040 127 127 0
0.306412 0.896886 0.001895 127 127 0
-0.030109 0.748492 -0.004730 76 153 0
0.211937 0.765415 -0.004730 76 153 0
-0.888430 -0.351866 -0.013580 127 127 0
-0.197680 0.786383 -0.004730 76 153 0
-0.355218 0.003691 -0.004730 76 153 0
-0.266391 0.296060 -0.004730 76 153 0
0.678177 0.686923 0.046700 127 127 0
-0.937916 0.018952 0.046708 127 127 0
0.255230 0.948057 0.099529 127 127 0
0.890584 -0.238872 0.066876 127 127 0
-0.608547 -0.707961 -0.051237 127 127 0
-0.925403 -0.147055 -0.106284 127 127 0
-0.493511 -0.786338 -0.026198 127 127 0
-0.069012 0.953808 0.011182 127 127 0
0.135658 0.943530 0.030029 127 127 0
0.154692 0.941656 0.060815 127 127 0
0.563989 0.745110 -0.034288 127 127 0
-0.080784 0.868684 -0.004730 76 153 0
0.266871 0.732478 -0.004730 76 153 0
-0.680262 0.234823 -0.004730 76 153 0
0.689095 0.054177 0.006864 76 153 0
-0.013549 -0.643025 -0.004730 76 153 0
0.752333 -0.520920 -0.040278 127 127 0
-0.929484 0.142320 -0.086224 127 127 0
-0.928055 -0.177932 -0.106284 127 127 0
0.600642 0.715034 0.064235 127 127 0
0.282883 -0.335481 -0.004730 76 153 0
-0.134585 -0.786339 -0.004730 76 153 0
0.913418 -0.043042 0.112040 127 127 0
0.638753 -0.605557 -0.063893 127 127 0
0.792422 0.536600 0.029465 127 127 0
0.819147 0.414235 0.018175 127 127 0
0.754822 -0.006130 -0.004730 76 153 0
0.594938 0.763834 -0.026602 127 127 0
0.886489 0.196010 -0.020742 127 127 0
-0.081492 -0.743300 -0.004730 76 153 0
-0.868039 -0.317658 0.075632 127 127 0
-0.769520 -0.492147 -0.062176 127 127 0
-0.236142 -0.820322 -0.004730 76 153 0
0.638181 0.728342 -0.002995 127 127 0
-0.927565 0.161798 0.086568 127 127 0
0.820839 -0.407779 -0.093083 127 127 0
-0.586180 -0.682190 0.086477 127 127 0
0.832077 0.389890 -0.027201 127 127 0
0.756170 0.532046 -0.050046 127 127 0
-0.789557 -0.368224 -0.004730 76 153 0
-0.939373 0.033750 0.093526 127 127 0
-0.528282 -0.181539 -0.004730 76 153 0
0.872202 0.348571 0.112040 127 127 0
-0.851295 -0.060400 -0.004730 76 153 0
0.353392 -0.840832 -0.106284 127 127 0
-0.965611 -0.047903 -0.068323 127 127 0
-0.302765 0.944551 -0.106284 127 127 0
0.034790 0.953465 0.096471 127 127 0
0.408035 0.313994 -0.004730 76 153 0
0.471036 -0.756576 -0.106284 127 127 0
0.026578 -0.096377 -0.004730 76 153 0
0.461445 -0.783323 0.096148 127 127 0
-0.007794 0.980554 -0.106284 127 127 0
0.461115 0.820468 -0.039042 127 127 0
-0.202567 0.750566 -0.004730 76 153 0
0.326432 -0.815161 -0.047600 127 127 0
0.038815 0.492172 -0.004730 76 153 0
-0.438843 0.852530 0.010554 127 127 0
0.158437 -0.340925 -0.004730 76 153 0
0.123276 -0.903377 -0.100478 127 127 0
0.595337 0.355889 -0.004730 76 153 0
-0.615624 0.302395 -0.004730 76 153 0
0.171909 -0.896671 0.112040 127 127 0
0.037642 0.953184 -0.071586 127 127 0
-0.480803 0.868783 0.091060 127 127 0
0.423394 0.573992 -0.004730 76 153 0
0.433981 -0.798002 0.101732 127 127 0
-0.730688 -0.539471 0.023794 127 127 0
0.035153 0.969753 0.112040 127 127 0
-0.073618 -0.877702 0.034794 127 127 0
-0.899051 0.407647 -0.050424 127 127 0
0.386288 -0.669962 -0.004730 76 153 0
0.286329 -0.827325 -0.068905 127 127 0
-0.786381 0.281927 -0.004730 76 153 0
-0.934131 0.095135 0.054147 127 127 0
0.765674 -0.450357 -0.106284 127 127 0
0.100320 0.038013 0.000504 76 153 0
-0.000955 0.132044 -0.004730 76 153 0
0.862362 -0.214400 0.000548 127 127 0
0.053890 0.985862 0.087638 127 127 0
-0.143443 0.351686 -0.004730 76 153 0
-0.577134 0.787591 -0.106284 127 127 0
-0.658584 -0.164801 -0.004730 76 153 0
0.688386 0.647980 -0.106284 127 127 0
0.437184 0.871943 -0.038952 127 127 0
-0.277443 0.869431 -0.004730 76 153 0
-0.636970 -0.398616 -0.004730 76 153 0
-0.137284 0.981363 -0.071972 127 127 0
0.166952 0.974728 0.081717 127 127 0
0.901827 0.183890 0.112040 127 127 0
0.719349 -0.160014 -0.004730 76 153 0
0.426129 0.626486 -0.004730 76 153 0
-0.708174 -0.566908 0.024962 127 127 0
-0.287841 -0.218839 -0.004730 76 153 0
0.168314 0.296601 -0.004730 76 153 0
-0.345159 -0.856561 0.049643 127 127 0
-0.120525 0.584172 -0.004730 76 153 0
-0.016901 -0.558288 -0.004730 76 153 0
-0.814850 -0.417158 -0.015232 127 127 0
0.097761 0.232083 -0.004730 76 153 0
-0.523749 -0.752907 -0.106284 127 127 0
0.254900 -0.302250 -0.004730 76 153 0
0.644710 0.722983 -0.087944 127 127 0
-0.258183 -0.058189 -0.004730 76 153 0
0.749891 -0.033792 -0.004730 76 153 0
-0.900071 -0.214394 0.044800 127 127 0
-0.588136 0.800366 0.100985 127 127 0
-0.868370 0.392691 -0.085218 127 127 0
0.312493 -0.819389 0.031580 127 127 0
-0.477155 -0.779981 -0.106284 127 127 0
-0.044382 0.405954 -0.004730 76 153 0
-0.965195 -0.052128 -0.007836 127 127 0
-0.750404 0.434765 -0.004730 76 153 0
-0.832949 0.531324 0.101088 127 127 0
0.650240 -0.591558 -0.095475 127 127 0
0.872469 -0.058423 -0.004730 76 153 0
-0.151397 -0.489595 -0.004730 76 153 0
0.921642 -0.111488 -0.007993 127 127 0
0.100872 0.156318 -0.004730 76 153 0
-0.095671 0.951182 -0.074884 127 127 0
0.593174 0.721162 -0.024878 127 127 0
0.901553 0.278369 -0.077196 127 127 0
0.348786 0.683503 -0.004730 76 153 0
0.366578 0.871003 -0.074366 127 127 0
0.419575 -0.767021 0.023161 127 127 0
0.887691 -0.248409 -0.064835 127 127 0
0.074076 0.000387 -0.004730 76 153 0
-0.758365 -0.505741 -0.028589 127 127 0
-0.592657 0.752527 -0.030252 127 127 0
-0.406599 -0.033461 -0.004730 76 153 0
-0.958261 0.198190 0.061795 127 127 0
-0.925349 0.184301 0.002557 76 153 0
-0.416926 0.049589 -0.004730 76 153 0
0.903999 0.270305 0.011043 127 127 0
0.210095 0.434275 -0.004730 76 153 0
-0.527458 -0.768195 0.004792 127 127 0
-0.971008 0.006894 0.002066 127 127 0
-0.708890 -0.240826 -0.004730 76 153 0
0.170698 -0.003366 -0.004730 76 153 0
-0.603374 0.420744 -0.004730 76 153 0
0.697243 -0.577666 -0.106284 127 127 0
-0.770261 -0.491244 -0.022250 127 127 0
0.197634 0.815856 -0.004730 76 153 0
-0.136349 -0.871524 -0.015218 127 127 0
0.128655 0.080123 -0.004730 76 153 0
-0.642276 0.406916 -0.004730 76 153 0
0.855264 0.419021 -0.087819 127 127 0
0.080090 -0.335509 -0.004730 76 153 0
0.871668 -0.183721 -0.020544 127 127 0
0.149701 0.324153 -0.004730 76 153 0
0.407497 0.887809 0.059191 127 127 0
0.914703 0.096715 -0.106284 127 127 0
0.783490 0.553310 0.084853 127 127 0
0.566635 0.137211 -0.004730 76 153 0
-0.505409 -0.079052 -0.004730 76 153 0
-0.751445 -0.567944 0.111775 127 127 0
0.887968 -0.105345 -0.036736 127 127 0
-0.912972 -0.289365 -0.020793 127 127 0
0.766039 -0.343570 -0.004730 76 153 0
-0.971417 0.039911 0.112040 127 127 0
0.127635 -0.056241 -0.004730 76 153 0
-0.401708 0.219903 -0.004730 76 153 0
0.480285 0.015196 -0.004730 76 153 0
0.158918 -0.553153 -0.004730 76 153 0
0.065992 -0.375651 -0.004730 76 153 0
-0.795479 -0.453397 -0.062162 127 127 0
-0.792979 -0.458074 -0.086079 127 127 0
-0.936921 -0.210427 0.093004 127 127 0
-0.926370 -0.098283 -0.027736 127 127 0
-0.180604 -0.881388 0.112040 127 127 0
-0.727150 0.017234 -0.004730 76 153 0
0.888341 0.177210 -0.060928 127 127 0
-0.399578 0.775449 -0.004730 76 153 0
-0.218029 -0.601299 -0.004730 76 153 0
-0.909407 -0.183616 0.085675 127 127 0
-0.651986 -0.508750 -0.004730 76 153 0
-0.355892 -0.853305 0.008865 127 127 0
0.185629 0.105379 -0.004730 76 153 0
0.536495 -0.415927 -0.004730 76 153 0
0.335685 -0.847996 0.097881 127 127 0
0.147703 0.181071 -0.004730 76 153 0
0.316617 -0.818138 -0.005348 76 153 0
0.179313 0.935440 -0.081332 127 127 0
-0.883931 -0.267603 -0.043641 127 127 0
-0.428557 0.896707 0.087729 127 127 0
0.547751 0.785131 0.112040 127 127 0
-0.015807 -0.375283 -0.004730 76 153 0
0.722497 -0.405733 0.006864 76 153 0
-0.431622 0.079951 -0.004730 76 153 0
0.889447 -0.090321 -0.087421 127 127 0
0.294352 0.770169 -0.004730 76 153 0
0.005750 -0.087073 -0.004730 76 153 0
-0.670391 -0.627545 0.112040 127 127 0
-0.133662 0.981720 0.043606 127 127 0
-0.233028 -0.571747 -0.004730 76 153 0
0.020880 0.289261 0.006448 0 127 127
-0.928913 0.148120 0.010381 127 127 0
-0.124091 0.948383 0.030692 127 127 0
0.525345 0.820954 -0.008300 127 127 0
-0.425508 -0.784006 0.028269 127 127 0
-0.620494 -0.454108 -0.004730 76 153 0
-0.964990 0.129859 0.047344 127 127 0
0.355057 -0.840185 -0.058183 127 127 0
-0.915468 0.356790 -0.079311 127 127 0
-0.093707 -0.578989 -0.004730 76 153 0
0.463500 0.857878 -0.031078 127 127 0
0.795006 0.531765 -0.063981 127 127 0
0.385610 -0.635077 -0.004730 76 153 0
-0.704858 0.700357 -0.054607 127 127 0
-0.741519 0.601923 0.045810 127 127 0
0.218374 0.959239 0.093439 127 127 0
-0.070032 0.953707 -0.085657 127 127 0
0.884975 -0.135731 -0.079909 127 127 0
-0.146732 -0.751441 -0.004730 76 153 0
0.206898 -0.022114 -0.004730 76 153 0
0.793026 0.512065 0.112040 127 127 0
-0.178126 0.210486 -0.004730 76 153 0
-0.868651 -0.358174 0.112040 127 127 0
0.533866 -0.738307 0.023767 127 127 0
0.886299 0.197944 -0.060852 127 127 0
-0.316050 0.238345 -0.004730 76 153 0
0.120571 -0.182924 -0.004730 76 153 0
-0.842457 0.472929 0.112040 127 127 0
0.497335 0.451251 -0.004730 76 153 0
-0.955210 0.135019 -0.106284 127 127 0
0.128341 -0.498793 -0.004730 76 153 0
-0.882042 -0.363819 0.063164 127 127 0
-0.190272 -0.078274 -0.004730 76 153 0
0.461586 0.858901 -0.064264 127 127 0
-0.263649 -0.845643 -0.085787 127 127 0
-0.960792 0.172489 -0.023627 127 127 0
-0.919416 0.272714 -0.106284 127 127 0
0.750853 0.598377 -0.085207 127 127 0
-0.541018 -0.719248 -0.084258 127 127 0
0.399601 -0.816378 0.106481 127 127 0
-0.236775 0.929448 0.011367 127 127 0
-0.441199 0.889950 0.048995 127 127 0
0.570502 -0.293396 -0.004730 76 153 0
-0.156981 0.664668 -0.004730 76 153 0
-0.887416 -0.353763 -0.046164 127 127 0
0.013970 -0.183193 -0.004730 76 153 0
-0.708666 0.641961 -0.080302 127 127 0
-0.140886 0.946729 -0.063010 127 127 0
0.778274 -0.135251 -0.004730 76 153 0
0.911668 0.245028 -0.080175 127 127 0
0.460024 0.656253 -0.004730 76 153 0
-0.584091 -0.361052 -0.004730 76 153 0
0.253412 -0.872956 -0.081476 127 127 0
-0.800800 0.583464 0.035709 127 127 0
-0.907220 0.326791 -0.106284 127 127 0
-0.038135 0.991128 0.024100 127 127 0
0.501852 -0.519074 -0.004730 76 153 0
-0.468319 0.875455 0.025707 127 127 0
0.126646 0.363434 -0.004730 76 153 0
-0.505051 0.855823 0.016212 127 127 0
-0.927983 -0.081903 -0.090563 127 127 0
-0.637653 0.581332 -0.004730 76 153 0
-0.654707 -0.625959 -0.051147 127 127 0
0.560078 -0.099970 -0.004730 76 153 0
0.847330 0.339608 -0.074157 127 127 0
-0.432824 -0.204660 -0.004730 76 153 0
-0.965042 0.129332 0.008139 127 127 0
0.405622 -0.799779 -0.106284 127 127 0
-0.219633 0.709876 -0.004730 76 153 0
0.754620 -0.518134 0.030361 127 127 0
0.874188 -0.251193 0.112040 127 127 0
0.220720 -0.882874 0.032349 127 127 0
-0.088756 -0.817347 -0.004730 76 153 0
-0.541695 -0.718693 0.036053 127 127 0
-0.836102 -0.449771 0.037924 127 127 0
-0.255973 0.718147 -0.004730 76 153 0
-0.935564 0.290551 -0.026813 127 127 0
-0.192463 0.941650 0.065049 127 127 0
-0.173211 0.168472 -0.004730 76 153 0
0.606539 -0.104574 -0.004730 76 153 0
-0.626314 0.609487 -0.004730 76 153 0
0.194094 -0.890952 0.000569 127 127 0
-0.891408 0.002760 -0.004730 76 153 0
-0.528813 -0.401162 -0.004730 76 153 0
-0.619780 0.572890 -0.004730 76 153 0
-0.864503 -0.324274 -0.013142 127 127 0
0.579624 -0.700751 0.076239 127 127 0
0.813326 0.233893 -0.004730 76 153 0
0.676807 0.605353 -0.004730 76 153 0
0.574636 -0.660722 -0.080028 127 127 0
-0.761883 0.603914 0.112040 127 127 0
0.088568 0.485406 -0.004730 76 153 0
0.247693 0.895971 -0.004730 76 153 0
-0.028512 0.957796 -0.089202 127 127 0
0.493674 -0.279524 -0.004730 76 153 0
0.239743 -0.841457 -0.028081 127 127 0
0.204762 -0.092180 -0.004730 76 153 0
0.687902 -0.545660 -0.013560 127 127 0
0.408096 -0.628468 -0.004730 76 153 0
0.730776 0.622838 -0.009663 127 127 0
0.895478 0.104736 0.068763 127 127 0
0.381328 -0.144074 -0.004730 76 153 0
0.892455 0.135430 -0.005014 76 153 0
0.642434 0.707807 -0.106284 127 127 0
-0.680466 0.724585 0.061562 127 127 0
0.821423 0.409976 0.056968 127 127 0
-0.828227 0.285332 -0.004730 76 153 0
-0.096110 0.953898 0.112040 127 127 0
0.889878 -0.241198 -0.084375 127 127 0
0.799001 -0.232297 -0.004730 76 153 0
0.750462 0.542724 0.035562 127 127 0
-0.456915 0.881550 0.061247 127 127 0
0.829956 -0.318362 0.086014 127 127 0
-0.564803 0.819516 -0.105764 127 127 0
-0.352794 -0.665085 -0.004730 76 153 0
0.162954 0.940402 0.004318 127 127 0
0.550281 0.800487 -0.084683 127 127 0
-0.695973 -0.322628 -0.004730 76 153 0
-0.088883 0.951851 0.030729 127 127 0
-0.968680 -0.016738 0.062513 127 127 0
-0.436344 -0.778213 0.046483 127 127 0
-0.860125 -0.332464 0.014613 127 127 0
0.378039 0.874336 -0.106284 127 127 0
0.789419 -0.466566 -0.029338 127 127 0
0.489283 -0.024848 -0.004730 76 153 0
-0.846217 -0.408047 0.112040 127 127 0
0.346704 0.527388 -0.004730 76 153 0
0.553600 -0.254599 -0.004730 76 153 0
0.875368 -0.289025 0.034539 127 127 0
-0.787023 0.191427 -0.004730 76 153 0
0.435141 0.845736 0.112040 127 127 0
0.264447 0.604403 -0.004730 76 153 0
0.266732 0.543832 -0.004730 76 153 0
-0.846403 -0.430498 -0.068336 127 127 0
-0.866337 -0.320842 -0.087727 127 127 0
0.290398 0.385414 -0.004730 76 153 0
0.323591 0.891675 0.030191 127 127 0
-0.486411 -0.751450 0.092728 127 127 0
-0.157112 -0.729690 -0.004730 76 153 0
-0.271235 0.229659 -0.004730 76 153 0
-0.214472 -0.020700 -0.004730 76 153 0
-0.890387 0.321969 0.022946 127 127 0
-0.922100 -0.141637 0.013942 127 127 0
-0.269626 0.356945 -0.004730 76 153 0
-0.933612 -0.221335 0.001095 127 127 0
0.012555 -0.914281 -0.098103 127 127 0
0.176977 0.513107 -0.004730 76 153 0
0.394152 0.427863 -0.004730 76 153 0
0.917120 -0.025635 -0.106284 127 127 0
-0.675300 0.589774 -0.004730 76 153 0
-0.596327 0.079968 -0.004730 76 153 0
0.825319 -0.399398 -0.049681 127 127 0
0.766535 -0.503618 -0.081722 127 127 0
0.545630 -0.684523 -0.075825 127 127 0
-0.146709 -0.087353 -0.004730 76 153 0
0.898530 0.001905 0.066499 127 127 0
-0.611488 -0.570485 -0.004730 76 153 0
-0.716524 -0.268351 -0.004730 76 153 0
0.203271 0.708669 -0.004730 76 153 0
0.642437 -0.601067 -0.016975 127 127 0
0.636428 -0.654129 0.038356 127 127 0
-0.668974 0.147970 -0.004730 76 153 0
-0.160374 -0.869157 0.110281 127 127 0
0.687096 0.622295 0.006990 127 127 0
-0.923608 -0.126325 0.027731 127 127 0
-0.279212 -0.300214 -0.004730 76 153 0
0.530277 -0.018807 -0.004730 76 153 0
-0.568824 -0.541960 -0.004730 76 153 0
-0.366202 -0.330489 -0.004730 76 153 0
0.178430 0.334650 -0.004730 76 153 0
0.108004 0.958127 0.112040 127 127 0
-0.787971 0.543095 -0.009437 127 127 0
-0.440265 -0.814797 0.005263 127 127 0
0.704427 -0.579289 -0.088807 127 127 0
0.075531 -0.873800 0.039846 127 127 0
0.497323 0.839800 0.033144 127 127 0
0.890629 0.314376 0.054082 127 127 0
-0.893161 0.418668 -0.027373 127 127 0
-0.065377 -0.462508 -0.004730 76 153 0
-0.213522 -0.792009 -0.004730 76 153 0
-0.420762 -0.825221 -0.037243 127 127 0
-0.208497 -0.223342 -0.004730 76 153 0
0.257880 -0.595924 -0.004730 76 153 0
-0.733119 0.612161 -0.040156 127 127 0
0.660155 0.655128 -0.050981 127 127 0
-0.018613 0.993003 0.018912 127 127 0
-0.224160 -0.893271 0.038976 127 127 0
0.439070 0.234188 -0.004730 76 153 0
-0.907267 -0.308171 -0.007367 127 127 0
0.801327 -0.444286 0.093563 127 127 0
-0.428347 -0.387783 -0.004730 76 153 0
0.895574 -0.053374 -0.106284 127 127 0
0.924436 0.158769 -0.081568 127 127 0
0.045831 -0.876725 0.070002 127 127 0
0.785916 0.548772 -0.052896 127 127 0
-0.022168 -0.145655 -0.004730 76 153 0
-0.844356 -0.396739 -0.106284 127 127 0
0.541493 0.140313 -0.004730 76 153 0
-0.284407 0.288540 -0.004730 76 153 0
0.745984 -0.233693 -0.004730 76 153 0
0.138650 0.807048 -0.004730 76 153 0
0.529952 0.817173 -0.089577 127 127 0
0.830383 -0.317563 0.041882 127 127 0
-0.560629 0.822942 0.102700 127 127 0
-0.381081 -0.161129 -0.004730 76 153 0
0.337150 0.169626 -0.004730 76 153 0
-0.525430 0.055408 -0.004730 76 153 0
-0.923366 0.204437 -0.013330 127 127 0
0.557967 -0.606459 -0.004730 76 153 0
-0.959348 0.187149 -0.073738 127 127 0
-0.410329 -0.491057 -0.004730 76 153 0
0.718847 0.583601 -0.019942 127 127 0
-0.468868 0.875162 -0.046872 127 127 0
0.696325 0.664812 0.064149 127 127 0
0.924329 0.159852 -0.021176 127 127 0
0.185696 0.554165 -0.004730 76 153 0
0.753378 -0.519647 -0.089119 127 127 0
0.461599 0.146424 -0.004730 76 153 0
0.831360 0.449576 -0.106284 127 127 0
0.106901 0.980642 0.089264 127 127 0
-0.139362 -0.126400 -0.004730 76 153 0
0.098041 0.749387 -0.004730 76 153 0
0.465371 -0.197041 -0.004730 76 153 0
-0.563244 -0.701010 -0.028302 127 127 0
0.158606 0.959087 0.112040 127 127 0
0.794997 -0.383758 -0.095109 127 127 0
0.303013 0.184864 -0.004730 76 153 0
-0.319013 0.083347 -0.004730 76 153 0
0.711013 -0.517496 0.077179 127 127 0
-0.481161 0.816144 -0.004730 76 153 0
-0.605426 0.680174 -0.004730 76 153 0
0.000189 0.687677 -0.004730 76 153 0
-0.260001 -0.882397 0.036527 127 127 0
-0.388809 -0.676373 -0.004730 76 153 0
0.780461 -0.030615 -0.004730 76 153 0
-0.712495 -0.154895 -0.004730 76 153 0
0.604966 -0.159630 -0.004730 76 153 0
0.004964 -0.020449 -0.004730 76 153 0
-0.882650 0.210458 -0.004730 76 153 0
0.607915 0.753183 0.108091 127 127 0
0.244324 0.915720 0.109395 127 127 0
0.379295 -0.821126 -0.106284 127 127 0
0.639100 -0.605134 -0.104153 127 127 0
0.740084 -0.119077 -0.004730 76 153 0
0.021718 0.595881 -0.004730 76 153 0
0.479746 -0.734856 0.092703 127 127 0
-0.729416 -0.594785 0.063583 127 127 0
-0.485161 -0.447740 -0.004730 76 153 0
0.634758 0.235010 -0.004730 76 153 0
-0.565405 0.819022 0.002001 127 127 0
-0.296860 0.211806 -0.004730 76 153 0
-0.639702 -0.638271 0.097676 127 127 0
-0.327872 0.885793 -0.004730 76 153 0
0.357348 0.914613 0.090519 127 127 0
0.932501 -0.001218 -0.002727 127 127 0
0.053886 0.985863 0.038680 127 127 0
-0.241484 -0.784354 -0.004730 76 153 0
0.853760 0.421836 -0.021979 127 127 0
-0.437587 -0.074115 -0.004730 76 153 0
0.302144 -0.610508 -0.004730 76 153 0
0.177133 -0.896098 0.077203 127 127 0
-0.199135 0.497168 -0.004730 76 153 0
-0.692985 -0.281619 -0.004730 76 153 0
-0.409013 -0.831500 0.046387 127 127 0
-0.899482 0.291989 0.100457 127 127 0
0.156381 0.130534 -0.004730 76 153 0
0.816325 -0.416224 -0.016426 127 127 0
-0.064288 -0.912899 0.095786 127 127 0
-0.914533 -0.284221 -0.072794 127 127 0
0.887227 -0.249937 -0.037886 127 127 0
0.531496 0.771773 -0.087587 127 127 0
-0.235624 -0.401343 -0.004730 76 153 0
-0.497957 0.148024 -0.004730 76 153 0
-0.936473 0.071357 -0.089914 127 127 0
-0.595873 -0.674236 0.026100 127 127 0
-0.650906 0.664419 -0.004730 76 153 0
0.352586 -0.361316 -0.004730 76 153 0
-0.102540 -0.480675 -0.004730 76 153 0
-0.024144 0.992506 -0.050858 127 127 0
-0.867251 -0.391493 0.027222 127 127 0
-0.099933 -0.852728 -0.004730 76 153 0
0.841259 -0.333197 0.112040 127 127 0
0.505346 0.306275 -0.004730 76 153 0
0.890506 -0.079565 -0.064291 127 127 0
-0.877579 0.364195 0.039914 127 127 0
0.115284 0.945537 -0.050879 127 127 0
0.415202 -0.686809 0.006864 76 153 0
0.323287 0.055755 -0.004730 76 153 0
0.085036 0.948516 -0.056504 127 127 0
0.298297 0.588579 -0.004730 76 153 0
-0.804213 -0.503653 0.044293 127 127 0
0.692717 -0.515701 -0.004730 76 153 0
-0.040544 -0.880959 0.032153 127 127 0
-0.403082 0.015625 -0.004730 76 153 0
-0.154517 -0.364684 -0.004730 76 153 0
-0.270028 0.253404 -0.004730 76 153 0
-0.136514 0.494272 -0.004730 76 153 0
-0.956749 0.213535 -0.018886 127 127 0
-0.358377 -0.852551 0.081334 127 127 0
-0.383718 0.478775 -0.004730 76 153 0
0.492304 0.842483 -0.057085 127 127 0
-0.591302 -0.677987 -0.004776 127 127 0
0.745520 0.281411 -0.004730 76 153 0
-0.377245 0.922479 0.065879 127 127 0
-0.957277 0.208178 0.028715 127 127 0
0.138358 -0.080037 -0.004730 76 153 0
-0.021443 -0.281360 -0.004730 76 153 0
0.773625 -0.494979 0.096435 127 127 0
-0.085266 0.986486 -0.023601 127 127 0
0.269890 0.009152 -0.004730 76 153 0
-0.429495 0.713427 -0.004730 76 153 0
0.650605 0.718145 0.027428 127 127 0
-0.243030 0.390012 -0.004730 76 153 0
-0.107899 -0.767258 -0.004730 76 153 0
0.293472 0.900811 -0.016146 127 127 0
0.857645 0.305601 -0.074838 127 127 0
-0.007823 0.659083 -0.004730 76 153 0
0.472383 0.595433 -0.004730 76 153 0
0.869161 -0.309487 -0.001418 127 127 0
-0.165945 0.558657 -0.004730 76 153 0
-0.935264 -0.007974 -0.080651 127 127 0
-0.834371 -0.380640 -0.065831 127 127 0
-0.837971 -0.373907 -0.026153 127 127 0
0.137603 -0.901966 -0.021578 127 127 0
-0.186274 -0.518656 -0.004730 76 153 0
-0.471576 -0.759380 -0.028508 127 127 0
0.628099 0.059214 -0.004730 76 153 0
0.859859 -0.334773 0.093567 127 127 0
0.552526 0.473955 -0.004730 76 153 0
0.038770 -0.075966 -0.004730 76 153 0
0.865255 0.280516 -0.020458 127 127 0
0.934562 0.019708 -0.017381 127 127 0
0.082845 -0.430723 -0.004730 76 153 0
-0.578510 -0.732614 0.037252 127 127 0
0.325489 -0.851089 -0.006670 127 127 0
0.655209 -0.585502 -0.050489 127 127 0
-0.376461 0.668960 -0.004730 76 153 0
-0.796506 0.527127 0.094037 127 127 0
0.721573 0.634051 -0.088089 127 127 0
0.381137 0.901899 -0.069598 127 127 0
0.147051 0.586830 -0.004730 76 153 0
-0.854234 -0.343483 0.056454 127 127 0
-0.403325 0.871516 0.005185 76 153 0
-0.181831 0.976976 -0.005700 127 127 0
-0.929077 0.311934 0.005444 127 127 0
-0.717429 0.395164 -0.004730 76 153 0
-0.492512 -0.786873 0.006798 127 127 0
0.053454 -0.361338 -0.004730 76 153 0
-0.383252 0.621617 -0.004730 76 153 0
0.771990 0.572623 -0.087791 127 127 0
0.775977 -0.485041 -0.106284 127 127 0
0.490914 -0.324372 -0.004730 76 153 0
-0.168141 0.627178 -0.004730 76 153 0
-0.555075 0.120905 -0.004730 76 153 0
0.349400 0.289757 -0.004730 76 153 0
0.404490 -0.722358 -0.004730 76 153 0
-0.529185 -0.728584 0.094930 127 127 0
0.445428 -0.227334 -0.004730 76 153 0
0.699102 -0.532011 -0.021909 127 127 0
-0.471010 0.835335 0.023318 127 127 0
-0.844798 0.436789 0.106646 127 127 0
0.374457 0.905469 -0.026188 127 127 0
0.877098 -0.283325 -0.071579 127 127 0
0.363215 -0.781594 -0.004730 127 127 0
-0.889111 -0.250526 0.089007 127 127 0
0.541539 -0.713056 0.112040 127 127 0
-0.796526 -0.451438 0.044441 127 127 0
-0.146991 0.136653 -0.004730 76 153 0
0.875683 0.363641 -0.023334 127 127 0
0.204303 -0.128316 -0.004730 76 153 0
0.750059 -0.500294 -0.106284 127 127 0
-0.282397 0.951255 -0.037093 127 127 0
0.832093 0.389839 -0.079733 127 127 0
-0.811471 0.499132 0.095694 127 127 0
0.409276 -0.440218 -0.004730 76 153 0
-0.236721 0.965112 -0.089419 127 127 0
0.695759 0.611737 -0.035661 127 127 0
0.031630 0.988055 -0.067464 127 127 0
-0.330529 0.129225 -0.004730 76 153 0
-0.340934 0.616236 -0.004730 76 153 0
0.297670 0.899538 -0.069506 127 127 0
0.692409 -0.567982 0.112040 127 127 0
0.929591 -0.030767 0.066716 127 127 0
0.470969 0.815200 0.043164 127 127 0
-0.823688 -0.281234 -0.004730 76 153 0
0.851096 -0.351168 0.040687 127 127 0
0.246737 0.455030 -0.004730 76 153 0
-0.970677 0.072111 0.086312 127 127 0
-0.892164 -0.344880 -0.063774 127 127 0
-0.914272 -0.167579 0.045419 127 127 0
0.469473 0.339302 -0.004730 76 153 0
-0.661265 -0.620578 -0.091860 127 127 0
-0.765405 0.572815 0.010919 127 127 0
-0.120143 0.298636 -0.004730 76 153 0
-0.608813 0.040540 -0.004730 76 153 0
0.116572 -0.018279 -0.004730 76 153 0
0.387387 0.502305 -0.004730 76 153 0
-0.501269 0.840987 0.112040 127 127 0
-0.745131 0.619751 0.112040 127 127 0
-0.909445 -0.238981 -0.106284 127 127 0
-0.054562 -0.879578 -0.042410 127 127 0
0.703247 0.656379 -0.013167 127 127 0
0.655612 -0.585011 0.015942 127 127 0
0.617136 0.549160 -0.004730 76 153 0
0.040585 0.944074 -0.004730 127 127 0
-0.079718 -0.372353 -0.004730 76 153 0
0.735656 0.563116 -0.018895 127 127 0
-0.152501 0.006638 -0.004730 76 153 0
0.221192 -0.537457 -0.004730 76 153 0
0.411259 -0.529417 -0.004730 76 153 0
-0.175008 -0.695221 -0.004730 76 153 0
0.444978 -0.737320 -0.004730 76 153 0
-0.502544 0.581794 -0.004730 76 153 0
-0.161647 -0.581632 -0.004730 76 153 0
0.296136 -0.824351 -0.044422 127 127 0
-0.853778 -0.344336 0.094463 127 127 0
0.224979 -0.008027 -0.004730 76 153 0
-0.841221 0.348667 -0.004730 76 153 0
-0.104194 0.733327 -0.004730 76 153 0
-0.120615 0.697090 -0.004730 76 153 0
0.900060 0.058211 0.102105 127 127 0
0.259644 0.861746 -0.004730 76 153 0
0.420400 -0.766580 0.059250 127 127 0
0.875546 0.246588 0.108453 127 127 0
0.026857 -0.051393 -0.004730 76 153 0
-0.189429 0.398406 -0.004730 76 153 0
-0.886179 0.251263 -0.004730 76 153 0
0.282578 0.212021 -0.004730 76 153 0
-0.914028 0.244036 -0.038226 127 127 0
0.921653 0.187023 0.027907 127 127 0
0.537017 -0.691590 -0.040266 127 127 0
0.934684 0.054715 0.090973 127 127 0
-0.387758 -0.438373 -0.004730 76 153 0
0.671480 0.024527 0.006864 76 153 0
0.104598 0.125318 -0.004730 76 153 0
-0.036580 0.300897 -0.004730 76 153 0
-0.422978 0.682310 -0.004730 76 153 0
-0.938483 0.024705 -0.071858 127 127 0
0.769306 0.507472 -0.088466 127 127 0
0.409084 0.886962 -0.100491 127 127 0
-0.183062 0.942575 0.081065 127 127 0
0.378940 -0.827420 0.055582 127 127 0
0.893857 0.303738 0.068985 127 127 0
-0.524756 0.408950 -0.004730 76 153 0
0.239248 -0.774261 -0.004730 76 153 0
0.071217 -0.089795 -0.004730 76 153 0
-0.684382 -0.595903 0.095538 127 127 0
0.675157 -0.589590 0.112040 127 127 0
0.707304 0.419395 -0.004730 76 153 0
0.782036 -0.408005 0.007274 127 127 0
0.557319 0.750583 0.057725 127 127 0
-0.581617 -0.730063 -0.023744 127 127 0
-0.744630 0.518413 -0.004730 76 153 0
0.077618 -0.907873 0.082534 127 127 0
0.619470 -0.623932 0.099135 127 127 0
0.800975 -0.372575 0.088950 127 127 0
0.849697 0.429439 0.022507 127 127 0
-0.298279 -0.835139 -0.051204 127 127 0
0.511754 0.787972 -0.026574 127 127 0
0.815260 0.421505 -0.081340 127 127 0
0.327600 -0.277222 -0.004730 76 153 0
0.826147 0.198328 -0.004730 76 153 0
0.463341 -0.378992 -0.004730 76 153 0
0.231958 0.919471 -0.023317 127 127 0
0.268440 -0.691661 -0.004730 76 153 0
0.226001 0.956925 -0.053298 127 127 0
0.023452 0.134067 -0.004730 76 153 0
-0.889902 -0.247916 0.046418 127 127 0
-0.430569 0.471945 -0.004730 76 153 0
0.871581 0.377161 0.009981 127 127 0
-0.207742 -0.360513 -0.004730 76 153 0
-0.239109 0.803360 -0.004730 76 153 0
-0.612087 -0.254119 -0.004730 76 153 0
-0.587390 -0.725326 -0.054986 127 127 0
0.105074 -0.034635 -0.004730 76 153 0
-0.120163 -0.907397 -0.089485 127 127 0
-0.100049 -0.219527 -0.004730 76 153 0
0.528792 -0.742472 0.096698 127 127 0
-0.213485 0.776647 -0.004730 76 153 0
-0.168319 -0.902654 0.006639 127 127 0
0.618384 0.744590 0.092072 127 127 0
0.626431 -0.662334 0.001206 127 127 0
0.227808 0.252022 -0.004730 76 153 0
-0.926685 -0.244165 -0.006111 127 127 0
-0.327812 0.901833 -0.079976 127 127 0
0.806332 -0.362555 -0.088781 127 127 0
0.224717 0.185096 -0.004730 76 153 0
0.763522 0.518292 0.023315 127 127 0
-0.026436 0.479626 -0.004730 76 153 0
0.882650 0.340675 -0.018200 127 127 0
0.866809 0.392892 0.087772 127 127 0
0.069788 -0.874365 -0.058228 127 127 0
0.171315 0.081898 -0.004730 76 153 0
-0.873044 -0.303493 0.042057 127 127 0
-0.818147 0.529198 0.112040 127 127 0
0.494391 0.841367 0.078839 127 127 0
-0.136258 -0.528031 -0.004730 76 153 0
-0.509652 0.117761 -0.004730 76 153 0
0.550000 -0.680937 -0.094252 127 127 0
-0.936011 0.076044 0.032937 127 127 0
-0.045327 0.765715 -0.004730 76 153 0
0.233359 -0.277470 -0.004730 76 153 0
-0.009563 -0.202502 -0.004730 76 153 0
-0.512916 -0.638710 -0.004730 76 153 0
0.023216 -0.913231 0.030533 127 127 0
0.633809 0.302810 -0.004730 76 153 0
0.288269 -0.650744 -0.004730 76 153 0
-0.055486 0.214716 -0.004730 76 153 0
-0.704203 0.701155 -0.098692 127 127 0
0.761115 -0.510221 0.069103 127 127 0
0.815657 0.493126 -0.072854 127 127 0
-0.740300 0.042071 0.006864 76 153 0
-0.752639 -0.544493 -0.106284 127 127 0
-0.153573 -0.904106 0.111938 127 127 0
-0.939316 0.033168 0.013738 127 127 0
0.782634 -0.406886 -0.023435 127 127 0
-0.445837 -0.165892 -0.004730 76 153 0
0.248175 -0.838899 0.039848 127 127 0
-0.973950 0.038881 0.023679 127 127 0
0.571026 -0.183338 -0.004730 76 153 0
0.874884 0.366274 0.038398 127 127 0
0.644018 -0.117009 -0.004730 76 153 0
-0.116423 -0.832699 -0.004730 76 153 0
0.867548 0.390456 -0.036786 127 127 0
0.600812 0.714894 -0.065924 127 127 0
0.679023 -0.353637 -0.004730 76 153 0
-0.961257 0.167766 -0.057941 127 127 0
0.414978 -0.248367 -0.004730 76 153 0
-0.673550 -0.191179 -0.004730 76 153 0
0.919351 0.210400 -0.005434 127 127 0
-0.475314 -0.145648 -0.004730 76 153 0
0.389214 -0.442591 -0.004730 76 153 0
0.012065 0.261978 -0.004730 76 153 0
-0.753594 0.173269 -0.004730 76 153 0
-0.934152 -0.019272 0.009264 127 127 0
-0.803329 -0.504730 -0.084258 127 127 0
0.059418 -0.291949 -0.004730 76 153 0
-0.962776 0.152345 -0.087917 127 127 0
-0.484230 0.828268 0.057319 127 127 0
0.311744 0.035022 -0.004730 127 0 127
0.056991 0.850960 -0.004730 76 153 0
0.889984 -0.084869 -0.016992 127 127 0
-0.915275 -0.164271 0.012057 127 127 0
-0.724604 0.048050 -0.004730 76 153 0
0.841677 -0.368790 0.098651 127 127 0
-0.959831 -0.106596 0.007811 127 127 0
-0.804775 0.511660 0.049197 127 127 0
-0.139483 0.730549 -0.004730 76 153 0
0.178321 -0.790751 -0.004730 76 153 0
-0.881957 -0.274108 0.017035 127 127 0
0.706097 0.652906 -0.052117 127 127 0
-0.108443 -0.039944 -0.004730 76 153 0
-0.270405 0.919246 -0.053966 127 127 0
0.614785 0.663668 -0.004730 76 153 0
-0.738741 -0.583422 0.003679 127 127 0
0.299523 -0.823323 -0.081166 127 127 0
-0.782239 0.604506 -0.106284 127 127 0
0.354205 0.558095 -0.004730 76 153 0
0.030936 0.908791 -0.004730 76 153 0
-0.780590 -0.271714 -0.004730 76 153 0
-0.528573 -0.728912 -0.050811 127 127 0
-0.608522 0.739509 -0.070443 127 127 0
0.427673 -0.102091 -0.004730 76 153 0
0.621169 0.623173 -0.004730 76 153 0
-0.342617 0.932985 0.097807 127 127 0
0.887630 0.220264 0.112040 127 127 0
0.032611 0.272362 -0.004730 76 153 0
-0.242772 -0.887624 -0.034219 127 127 0
-0.642501 -0.677276 -0.106284 127 127 0
-0.556108 -0.751001 -0.034642 127 127 0
-0.955267 0.225607 0.010519 127 127 0
0.089384 -0.906714 0.059383 127 127 0
0.148147 -0.866648 -0.081729 127 127 0
0.893273 -0.051477 -0.068992 127 127 0
0.708907 -0.243955 -0.004730 76 153 0
-0.785466 0.602146 0.000227 127 127 0
-0.450286 0.885093 -0.035191 127 127 0
-0.523287 0.650931 -0.004730 76 153 0
0.489170 -0.768505 -0.092303 127 127 0
-0.881705 0.440100 -0.091668 127 127 0
-0.055652 -0.879471 0.067118 127 127 0
-0.264139 -0.845495 0.020953 127 127 0
0.674233 -0.096127 -0.004730 76 153 0
0.132299 0.016266 -0.004730 76 153 0
0.295886 -0.860070 -0.086343 127 127 0
0.096035 0.947433 -0.019341 127 127 0
0.780963 0.485665 -0.025423 127 127 0
0.930181 -0.024776 0.008969 127 127 0
-0.936335 -0.156214 0.112040 127 127 0
-0.104503 0.518683 -0.004730 76 153 0
-0.025370 -0.440535 -0.004730 76 153 0
-0.278446 -0.148951 -0.004730 76 153 0
-0.564688 0.637756 -0.004730 76 153 0
-0.899605 0.291582 -0.084406 127 127 0
-0.902271 0.282792 -0.015329 127 127 0
0.774997 0.568960 -0.024867 127 127 0
-0.752128 0.107551 -0.004730 76 153 0
-0.485802 0.866111 0.027580 127 127 0
0.795760 -0.454701 0.065974 127 127 0
-0.301413 0.909840 -0.026099 127 127 0
-0.502144 0.191487 -0.004730 76 153 0
-0.201354 0.975053 -0.084739 127 127 0
0.736712 0.226309 -0.004730 76 153 0
0.221942 -0.846856 -0.060041 127 127 0
0.902287 0.275950 -0.057115 127 127 0
-0.383790 -0.183897 -0.004730 76 153 0
0.837645 -0.376334 0.024729 127 127 0
-0.701595 0.704333 -0.016407 127 127 0
-0.636205 0.016220 -0.004730 76 153 0
-0.796544 0.018316 -0.004730 76 153 0
-0.151528 -0.705187 -0.004730 76 153 0
-0.881564 -0.275405 -0.022211 127 127 0
-0.609809 0.738453 0.011793 127 127 0
0.217042 -0.865858 0.112040 127 127 0
0.368923 0.117064 -0.004730 76 153 0
0.623186 -0.425763 -0.004730 76 153 0
-0.927229 -0.089562 -0.063001 127 127 0
0.541828 -0.533394 -0.004730 76 153 0
-0.899949 0.290446 0.028147 127 127 0
-0.650155 -0.673811 0.090097 127 127 0
0.441676 -0.661851 -0.004730 76 153 0
0.643011 -0.648725 -0.031049 127 127 0
-0.832344 -0.339164 -0.004730 76 153 0
0.058658 -0.875461 -0.018035 127 127 0
0.664969 0.703015 -0.068301 127 127 0
-0.776949 0.612523 0.031435 127 127 0
-0.877752 -0.287971 -0.057289 127 127 0
0.777330 0.564836 0.037832 127 127 0
-0.304091 0.128076 -0.004730 76 153 0
-0.119149 -0.907497 0.100994 127 127 0
-0.323857 -0.863024 -0.090265 127 127 0
-0.173142 -0.902179 0.103602 127 127 0
0.038784 0.953071 0.040689 127 127 0
0.168431 -0.748975 -0.004730 76 153 0
-0.630726 0.290583 -0.004730 76 153 0
0.390673 -0.257458 -0.004730 76 153 0
0.289879 0.807283 -0.004730 76 153 0
-0.398404 -0.623979 -0.004730 76 153 0
0.479175 0.546263 -0.004730 76 153 0
-0.270866 -0.879101 -0.060781 127 127 0
-0.497762 -0.692700 -0.004730 76 153 0
0.023797 -0.903659 0.112040 127 127 0
-0.792948 0.533784 -0.070008 127 127 0
0.304596 -0.250079 -0.004730 76 153 0
-0.033343 -0.316883 -0.004730 76 153 0
0.899176 0.154383 -0.106284 127 127 0
-0.741412 -0.580168 -0.035452 127 127 0
-0.009209 -0.765535 0.006864 76 153 0
-0.653104 0.329340 -0.004730 76 153 0
-0.876093 -0.374948 -0.092259 127 127 0
0.675237 -0.561095 -0.046458 127 127 0
-0.290863 0.913041 0.082300 127 127 0
-0.163875 0.932912 -0.004730 76 153 0
-0.299302 -0.105894 -0.004730 76 153 0
-0.705160 0.090514 -0.004730 76 153 0
-0.770472 0.536425 -0.004730 76 153 0
-0.382207 0.281899 -0.004730 76 153 0
-0.851511 -0.420941 0.048942 127 127 0
-0.013084 -0.712331 0.006864 76 153 0
-0.832348 -0.456796 -0.061271 127 127 0
0.224742 0.732161 -0.004730 76 153 0
0.067570 0.247938 -0.004730 76 153 0
-0.491130 0.841711 -0.106284 127 127 0
-0.268998 -0.844021 0.101803 127 127 0
-0.115416 -0.890664 -0.106284 127 127 0
-0.899196 -0.244812 0.112040 127 127 0
-0.330350 0.901062 0.058240 127 127 0
-0.715841 0.479482 -0.004730 76 153 0
-0.158208 -0.117234 -0.004730 76 153 0
0.451862 0.737095 -0.004730 76 153 0
0.887327 0.187499 -0.104493 127 127 0
-0.079711 -0.776083 -0.004730 76 153 0
0.688233 -0.190050 -0.004730 76 153 0
0.707644 0.597253 0.016594 127 127 0
-0.116702 -0.873459 -0.058580 127 127 0
-0.627001 0.724346 0.108328 127 127 0
-0.069079 0.333408 -0.004730 76 153 0
0.933696 0.064740 -0.007433 127 127 0
-0.382819 -0.656929 -0.004730 76 153 0
0.194588 0.774171 -0.004730 76 153 0
-0.618821 -0.699529 -0.065296 127 127 0
0.001149 -0.881125 0.102510 127 127 0
-0.599734 0.790847 -0.048074 127 127 0
0.211822 -0.379865 -0.004730 76 153 0
-0.065786 -0.912752 0.029398 127 127 0
0.764872 -0.440115 -0.088514 127 127 0
0.562715 0.746156 0.095636 127 127 0
0.241293 0.507593 -0.004730 76 153 0
0.871115 0.261196 -0.078678 127 127 0
0.788570 0.471434 0.091622 127 127 0
-0.023383 0.992580 0.093846 127 127 0
0.439404 -0.621445 -0.004730 76 153 0
-0.108258 0.888925 -0.004730 76 153 0
0.478399 0.710264 -0.004730 76 153 0
0.624732 0.701923 0.112040 127 127 0
0.412546 0.825903 -0.004730 76 153 0
0.350570 -0.249146 -0.004730 76 153 0
-0.890569 0.321370 -0.085492 127 127 0
0.333432 -0.193387 -0.004730 76 153 0
-0.614986 0.263966 -0.004730 76 153 0
0.934417 0.018231 0.040213 127 127 0
-0.259429 0.116037 -0.004730 76 153 0
0.258593 -0.871384 0.077095 127 127 0
0.567946 -0.710335 0.016791 127 127 0
0.017769 -0.761529 -0.004730 76 153 0
0.624319 0.217643 -0.004730 76 153 0
-0.002611 -0.824658 -0.004730 76 153 0
-0.313984 -0.742052 -0.004730 76 153 0
0.049449 -0.702954 -0.004730 76 153 0
-0.145247 0.389959 -0.004730 76 153 0
0.621666 -0.532968 -0.004730 76 153 0
0.030086 0.374591 0.006448 0 127 127
0.541495 -0.057455 -0.004730 76 153 0
0.013927 -0.914146 -0.021615 127 127 0
0.924210 0.137389 -0.106284 127 127 0
-0.357382 -0.817210 0.077420 127 127 0
0.618757 0.744285 -0.027071 127 127 0
-0.177019 0.977450 0.091190 127 127 0
0.703648 -0.526471 0.042735 127 127 0
0.936226 0.036597 0.007999 127 127 0
-0.334364 0.227162 -0.004730 76 153 0
0.841176 -0.031174 -0.004730 76 153 0
-0.894080 -0.234143 -0.010069 127 127 0
-0.281977 -0.359338 -0.004730 76 153 0
-0.935789 -0.002645 -0.018779 127 127 0
0.622474 0.741234 0.037837 127 127 0
0.877886 0.238875 -0.043905 127 127 0
-0.230994 0.500065 -0.004730 76 153 0
0.170798 -0.862774 -0.106284 127 127 0
-0.518264 0.810075 0.094273 127 127 0
0.877856 -0.163320 -0.074425 127 127 0
0.248065 -0.742153 -0.004730 76 153 0
-0.366419 0.206626 -0.004730 76 153 0
-0.399553 -0.050320 -0.004730 76 153 0
-0.527066 0.259955 -0.004730 76 153 0
0.861956 -0.215739 -0.062580 127 127 0
-0.400262 0.911830 -0.023003 127 127 0
-0.061836 0.141427 -0.004730 76 153 0
0.740192 -0.535713 -0.018840 127 127 0
0.812850 -0.350361 0.044689 127 127 0
0.062044 0.421382 0.006448 0 127 127
0.221283 0.336505 -0.004730 76 153 0
0.887011 -0.115058 0.097241 127 127 0
0.340631 0.239797 -0.004730 76 153 0
-0.052657 0.989698 0.056187 127 127 0
-0.689689 0.717015 0.009178 127 127 0
0.459039 0.860262 0.043358 127 127 0
-0.153056 -0.219452 -0.004730 76 153 0
0.879818 -0.156855 -0.043273 127 127 0
0.586612 -0.024598 -0.004730 76 153 0
-0.954554 0.227960 0.064497 127 127 0
0.857764 -0.229558 0.025777 127 127 0
-0.817221 0.516606 -0.106284 127 127 0
-0.462341 0.839969 0.073772 127 127 0
0.460109 0.467978 -0.004730 76 153 0
-0.184832 -0.196076 -0.004730 76 153 0
0.861726 -0.310659 0.112040 127 127 0
-0.962286 -0.081661 0.060809 127 127 0
-0.342967 -0.821583 -0.013577 127 127 0
-0.302513 -0.564943 -0.004730 76 153 0
-0.219340 -0.619499 -0.004730 76 153 0
0.306038 -0.856990 0.092634 127 127 0
-0.441083 0.567640 -0.004730 76 153 0
0.396725 -0.037144 -0.004730 76 153 0
-0.795455 0.372946 -0.004730 76 153 0
-0.613814 -0.659514 0.074392 127 127 0
0.670334 -0.135353 -0.004730 76 153 0
-0.074795 0.953238 -0.043637 127 127 0
-0.044415 0.378728 -0.004730 76 153 0
-0.927835 0.159062 0.047451 127 127 0
0.831667 0.463173 0.038862 127 127 0
0.176048 -0.570952 -0.004730 76 153 0
-0.336773 0.934758 -0.046893 127 127 0
-0.918759 -0.270291 0.000161 127 127 0
0.211020 -0.885817 0.058596 127 127 0
0.566338 -0.667530 0.103338 127 127 0
-0.543351 0.689158 -0.004730 76 153 0
-0.698216 -0.180622 -0.004730 76 153 0
0.927935 -0.047586 0.096192 127 127 0
-0.029416 -0.782950 0.006864 76 153 0
-0.903429 -0.320822 -0.031359 127 127 0
0.539809 0.764951 0.028812 127 127 0
0.678543 0.232499 -0.004730 76 153 0
0.931553 0.086504 -0.051551 127 127 0
0.077479 -0.681325 -0.004730 76 153 0
0.067526 0.611244 -0.004730 76 153 0
0.563244 0.789848 -0.092788 127 127 0
-0.477922 0.851327 0.112040 127 127 0
0.140518 0.832687 -0.004730 76 153 0
-0.909843 0.294086 -0.106284 127 127 0
0.689952 0.672577 -0.083913 127 127 0
0.183085 0.870337 -0.004730 76 153 0
0.725968 -0.553043 -0.025182 127 127 0
-0.574839 0.767148 -0.097523 127 127 0
-0.468469 -0.799723 -0.016578 127 127 0
-0.613390 0.086304 -0.004730 76 153 0
0.067204 0.960478 0.112040 127 127 0
-0.714276 0.657886 0.112040 127 127 0
0.474867 -0.737464 -0.084980 127 127 0
0.029576 0.953978 0.005849 127 127 0
0.097893 0.605529 -0.004730 76 153 0
-0.458296 0.550601 -0.004730 76 153 0
0.749479 0.544562 0.003200 127 127 0
-0.201568 -0.642146 -0.004730 76 153 0
-0.581931 -0.729806 -0.089450 127 127 0
0.501116 -0.381144 -0.004730 76 153 0
-0.501604 0.857666 -0.001718 127 127 0
-0.748896 0.332608 -0.004730 76 153 0
0.546498 -0.574378 -0.004730 76 153 0
-0.322847 -0.827686 0.094118 127 127 0
0.884352 0.063397 -0.004730 76 153 0
-0.954497 -0.152494 0.042773 127 127 0
0.389501 0.483021 -0.004730 76 153 0
-0.212805 -0.431993 -0.004730 76 153 0
-0.562710 0.186005 -0.004730 76 153 0
-0.332417 0.507514 -0.004730 76 153 0
-0.869847 0.462288 -0.057520 127 127 0
0.763537 -0.507271 -0.017110 127 127 0
-0.798632 -0.510452 0.086921 127 127 0
-0.574632 -0.691666 0.024887 127 127 0
-0.347472 0.065832 -0.004730 76 153 0
-0.448365 -0.755936 -0.004730 76 153 0
0.897614 -0.007398 0.084180 127 127 0
-0.604537 -0.364006 -0.004730 76 153 0
0.837356 0.372489 -0.083036 127 127 0
-0.301099 0.945581 -0.069284 127 127 0
-0.074865 0.462060 -0.004730 76 153 0
-0.973273 0.045760 -0.026859 127 127 0
0.919437 0.209522 0.047256 127 127 0
0.468027 -0.435586 -0.004730 76 153 0
0.896454 0.094830 -0.085675 127 127 0
-0.407532 0.650565 -0.004730 76 153 0
0.281475 -0.315859 -0.004730 76 153 0
-0.480417 -0.793337 -0.040976 127 127 0
-0.473457 0.151663 -0.004730 76 153 0
-0.149129 -0.904544 0.040575 127 127 0
-0.970344 0.075496 0.024403 127 127 0
-0.469350 0.874904 -0.083174 127 127 0
0.269523 -0.208965 -0.004730 76 153 0
-0.213810 0.972063 0.083601 127 127 0
-0.408361 -0.216355 -0.004730 76 153 0
-0.524927 -0.707343 -0.004730 76 153 0
0.695760 -0.269377 -0.004730 76 153 0
-0.028073 -0.899992 0.112040 127 127 0
0.485766 -0.731638 -0.010844 127 127 0
0.010230 -0.739640 -0.004730 76 153 0
0.158244 0.924185 -0.004730 76 153 0
0.815141 0.494093 0.094400 127 127 0
-0.567938 -0.741291 0.096252 127 127 0
-0.015037 -0.508208 -0.004730 76 153 0
-0.834208 -0.032933 -0.004730 76 153 0
-0.957556 -0.129693 0.077787 127 127 0
0.837504 0.452252 0.101106 127 127 0
0.026381 -0.650133 -0.004730 76 153 0
-0.811164 0.139507 -0.004730 76 153 0
0.779926 -0.411953 0.048369 127 127 0
0.897745 0.290919 0.022231 127 127 0
0.249796 0.949706 0.013481 127 127 0
-0.429658 0.857440 -0.086773 127 127 0
0.015370 0.989656 0.085276 127 127 0
0.233205 -0.145727 -0.004730 76 153 0
-0.219530 -0.521652 -0.004730 76 153 0
-0.917710 -0.273751 0.074387 127 127 0
-0.579156 -0.687954 -0.070334 127 127 0
-0.444747 -0.295877 -0.004730 76 153 0
-0.253602 0.870648 -0.004730 76 153 0
-0.460484 -0.403078 -0.004730 76 153 0
-0.224347 0.079292 -0.004730 76 153 0
0.234028 0.918843 -0.082620 127 127 0
-0.205037 -0.888224 0.112040 127 127 0
0.533949 0.299462 -0.004730 76 153 0
0.280128 -0.864851 0.049246 127 127 0
-0.193766 -0.865869 0.095114 127 127 0
0.093710 0.289112 -0.004730 76 153 0
0.736726 -0.486159 -0.045618 127 127 0
0.052654 0.449029 -0.004730 76 153 0
0.711658 -0.570479 0.083899 127 127 0
0.502175 -0.736252 -0.106284 127 127 0
