0.405417 -0.197115 0.212125 0.500000 0.000000 0.500000
0.350869 0.803108 0.186745 0.600000 0.000000 0.300000
-0.360204 0.703186 0.174689 0.800000 0.200000 0.500000
0.316219 0.720871 0.436502 0.300000 0.000000 0.600000
0.405417 0.571389 -0.180145 0.600000 0.000000 0.300000
-0.389651 -0.404984 0.220899 0.500000 0.000000 0.500000
-0.360204 -0.639556 -0.328008 1.000000 0.000000 0.000000
-0.092832 -0.094028 0.436502 0.600000 0.000000 0.300000
-0.068992 0.175571 0.436502 0.500000 0.000000 0.500000
0.347736 0.488050 -0.413254 0.300000 0.600000 0.000000
0.405417 0.739945 -0.210114 0.600000 0.000000 0.300000
0.143544 -0.753374 0.098076 0.500000 0.500000 0.000000
0.434864 0.404327 0.135034 0.000000 0.500000 0.500000
0.413355 -0.109662 0.436502 0.600000 0.000000 0.300000
-0.009021 -0.162477 0.411261 0.500000 0.500000 0.000000
-0.426763 -0.752174 -0.396427 0.300000 0.600000 0.000000
-0.361944 0.513687 0.030321 0.300000 0.000000 0.600000
0.111538 -0.753374 0.198226 0.500000 0.500000 0.000000
0.133161 0.530514 -0.232304 1.000000 0.000000 0.000000
-0.280164 0.538927 -0.199111 1.000000 0.000000 0.000000
-0.195912 0.258990 0.411261 0.500000 0.000000 0.500000
-0.381238 0.549032 0.308188 0.600000 0.300000 0.000000
0.035527 0.215852 -0.046735 0.300000 0.000000 0.600000
-0.381238 0.307755 0.402581 0.600000 0.300000 0.000000
0.384935 -0.337146 -0.362773 0.300000 0.600000 0.000000
-0.190020 -0.598099 0.411261 0.800000 0.200000 0.500000
0.361259 -0.753374 0.114251 0.500000 0.500000 0.000000
-0.360204 0.396251 0.180066 0.000000 0.500000 0.500000
0.406753 -0.692318 0.436502 0.800000 0.200000 0.500000
0.006832 0.014731 -0.379600 0.300000 0.000000 0.600000
-0.360274 -0.132464 -0.037026 0.600000 0.300000 0.000000
0.094283 -0.441049 -0.379600 0.300000 0.600000 0.000000
-0.241027 -0.115637 0.007545 0.600000 0.000000 0.300000
-0.377031 0.592968 0.158825 0.800000 0.200000 0.500000
0.405417 -0.671409 0.074992 0.000000 0.000000 1.000000
0.467941 -0.495587 -0.278639 0.000000 0.000000 1.000000
0.078674 -0.622376 0.440936 0.600000 0.300000 0.000000
0.251367 -0.275095 0.411261 0.500000 0.500000 0.000000
0.415059 0.463206 -0.003937 0.600000 0.300000 0.000000
0.434864 -0.344321 0.181716 0.000000 0.500000 0.500000
0.449569 0.210279 0.411261 0.500000 0.000000 0.500000
-0.312312 -0.296257 0.411261 0.500000 0.500000 0.000000
0.438472 0.786281 0.108373 0.600000 0.000000 0.300000
-0.006780 0.786281 0.231370 0.600000 0.000000 0.300000
0.281789 0.309873 0.436502 0.500000 0.000000 0.500000
-0.333172 -0.430299 0.185023 0.600000 0.000000 0.300000
0.426450 0.229829 0.120631 0.000000 0.500000 0.500000
-0.124670 -0.496239 0.436502 0.800000 0.200000 0.500000
-0.377031 -0.519466 0.274560 1.000000 0.000000 0.000000
0.162279 0.648379 -0.379600 0.000000 0.000000 1.000000
0.017383 0.705693 -0.362773 0.000000 0.000000 1.000000
-0.386486 -0.066881 -0.413254 0.300000 0.600000 0.000000
0.351496 0.388486 -0.396427 0.300000 0.600000 0.000000
-0.381238 0.651361 0.274969 0.500000 0.000000 0.500000
-0.180829 -0.107224 0.198272 0.600000 0.000000 0.300000
0.385849 -0.753374 -0.200611 0.500000 0.500000 0.000000
0.121164 0.578586 -0.362773 0.000000 0.000000 1.000000
0.031020 0.661066 0.304722 0.800000 0.200000 0.500000
0.119147 -0.190415 -0.362773 0.300000 0.600000 0.000000
0.476931 -0.093184 -0.344541 0.000000 0.000000 1.000000
-0.389651 0.450106 -0.030733 0.500000 0.000000 0.500000
0.254511 0.530891 0.436502 0.300000 0.000000 0.600000
0.179448 -0.714761 -0.379600 0.000000 1.000000 0.000000
-0.167946 0.719737 -0.413254 0.300000 0.600000 0.000000
-0.273860 0.740678 -0.379600 0.000000 0.000000 1.000000
-0.398642 0.492915 -0.278639 1.000000 0.000000 0.000000
-0.207188 -0.240488 0.411261 0.500000 0.500000 0.000000
0.039408 0.129052 0.436502 0.600000 0.000000 0.300000
0.083463 0.683535 -0.396427 0.300000 0.600000 0.000000
-0.389651 0.531375 0.243125 0.500000 0.000000 0.500000
-0.248987 -0.484145 0.436102 0.800000 0.200000 0.500000
-0.381238 0.752787 0.016036 0.500000 0.000000 0.500000
0.346576 0.216333 -0.379600 0.600000 0.000000 0.300000
-0.323075 -0.461615 -0.413254 0.300000 0.600000 0.000000
-0.152504 -0.676846 -0.379600 0.000000 1.000000 0.000000
-0.060781 -0.753374 -0.272333 0.500000 0.500000 0.000000
0.217659 -0.430299 0.398911 0.600000 0.000000 0.300000
0.049724 0.713561 0.436502 0.300000 0.000000 0.600000
0.188135 -0.115637 -0.193999 0.600000 0.000000 0.300000
-0.381238 -0.527761 -0.297262 1.000000 0.000000 0.000000
-0.390782 0.347880 -0.396427 0.300000 0.600000 0.000000
0.014193 0.551240 -0.046502 0.800000 0.200000 0.500000
-0.205342 -0.430299 0.213034 0.600000 0.000000 0.300000
-0.194096 -0.430299 -0.151817 0.600000 0.000000 0.300000
0.392731 0.321663 0.377608 0.500000 0.000000 0.500000
0.411354 0.732933 0.411261 0.600000 0.000000 0.300000
0.405417 -0.131630 -0.107262 0.300000 0.000000 0.600000
-0.360204 -0.067553 -0.086661 0.600000 0.300000 0.000000
0.014193 0.715271 -0.317793 0.800000 0.200000 0.500000
-0.248087 0.215852 -0.144627 0.300000 0.000000 0.600000
-0.360204 -0.326114 0.029508 0.000000 0.500000 0.500000
-0.281461 0.215852 0.203106 0.300000 0.000000 0.600000
0.476931 -0.397863 0.343702 0.300000 0.000000 0.600000
-0.330757 0.499329 0.302442 0.300000 0.000000 0.600000
0.405417 0.622138 0.332060 0.600000 0.000000 0.300000
0.060775 0.538927 -0.295048 1.000000 0.000000 0.000000
-0.062431 -0.628848 -0.396427 0.300000 0.600000 0.000000
-0.015475 -0.776130 -0.413254 0.300000 0.600000 0.000000
-0.406181 -0.008806 0.436502 0.600000 0.000000 0.300000
-0.422630 -0.291905 -0.413254 0.300000 0.600000 0.000000
0.282371 -0.247902 -0.413254 0.300000 0.600000 0.000000
-0.360204 -0.661429 -0.024499 1.000000 0.000000 0.000000
0.118229 0.538927 -0.344875 1.000000 0.000000 0.000000
-0.431718 0.758679 0.388438 0.600000 0.300000 0.000000
-0.068659 -0.085168 -0.396427 0.300000 0.600000 0.000000
0.065962 0.786281 0.035388 0.600000 0.000000 0.300000
-0.326034 0.803108 -0.322200 0.600000 0.000000 0.300000
-0.360204 0.125754 -0.062051 0.600000 0.300000 0.000000
0.177295 0.207438 -0.152550 0.300000 0.000000 0.600000
0.081353 -0.438712 0.239207 0.600000 0.000000 0.300000
0.144418 0.687614 -0.396427 0.300000 0.600000 0.000000
-0.169990 0.207438 0.295971 0.300000 0.000000 0.600000
-0.030576 -0.761788 0.222978 0.500000 0.500000 0.000000
-0.055661 -0.115637 -0.045536 0.600000 0.000000 0.300000
0.043815 -0.438712 0.130214 0.600000 0.000000 0.300000
-0.192231 -0.519050 0.411261 0.800000 0.200000 0.500000
-0.360204 0.129161 -0.011576 0.600000 0.300000 0.000000
0.086352 -0.683928 0.436502 0.800000 0.200000 0.500000
0.434864 0.656004 -0.054708 0.000000 0.500000 0.500000
0.426450 0.636852 0.181955 0.000000 0.500000 0.500000
0.434864 0.681929 -0.189919 0.000000 0.500000 0.500000
0.038682 0.332062 0.436502 0.500000 0.000000 0.500000
-0.172664 -0.430299 0.304421 0.600000 0.000000 0.300000
-0.032042 0.530514 -0.112995 1.000000 0.000000 0.000000
-0.358160 0.215852 0.024181 0.300000 0.000000 0.600000
0.108251 0.513687 -0.370063 0.000000 0.000000 1.000000
-0.031198 0.207438 -0.329482 0.300000 0.000000 0.600000
-0.377031 -0.760525 0.257556 1.000000 0.000000 0.000000
0.143114 -0.115637 -0.333742 0.600000 0.000000 0.300000
-0.351786 -0.455539 -0.380237 0.000000 1.000000 0.000000
0.083890 -0.778614 0.342221 0.800000 0.200000 0.500000
0.016505 0.430163 -0.362773 0.600000 0.000000 0.300000
-0.001628 -0.649240 -0.362773 0.000000 1.000000 0.000000
0.249917 0.048057 0.436502 0.600000 0.000000 0.300000
0.399741 0.459400 -0.379600 0.600000 0.000000 0.300000
0.014193 0.565945 -0.155614 0.800000 0.200000 0.500000
-0.360182 0.803108 0.430455 0.300000 0.000000 0.600000
-0.360204 0.348807 -0.295630 0.000000 0.500000 0.500000
0.434864 -0.297314 -0.180977 0.000000 0.500000 0.500000
0.426450 0.178174 0.251210 0.000000 0.500000 0.500000
-0.161739 0.786281 -0.390042 0.600000 0.000000 0.300000
-0.381238 -0.609299 -0.091448 0.500000 0.000000 0.500000
-0.163282 0.024267 -0.362773 0.300000 0.000000 0.600000
0.476931 0.799465 0.067750 0.600000 0.000000 0.300000
0.183313 -0.753374 -0.345590 0.500000 0.500000 0.000000
-0.307767 -0.132464 -0.369593 0.300000 0.000000 0.600000
-0.392577 -0.119090 0.436502 0.600000 0.000000 0.300000
-0.077807 0.474980 -0.413254 0.300000 0.600000 0.000000
0.434864 -0.624922 -0.078280 0.000000 0.500000 0.500000
0.242235 -0.430299 0.250129 0.600000 0.000000 0.300000
-0.384416 0.108699 0.293474 0.500000 0.000000 0.500000
0.476931 -0.314445 -0.316822 0.000000 0.000000 1.000000
0.434864 0.523628 0.195601 0.000000 0.500000 0.500000
0.384540 -0.430299 -0.240489 0.600000 0.000000 0.300000
-0.411510 0.803108 -0.146429 0.600000 0.000000 0.300000
0.434864 0.410834 0.016224 0.000000 0.500000 0.500000
0.182568 -0.643068 -0.413254 0.300000 0.600000 0.000000
-0.360204 -0.567488 0.409982 0.800000 0.200000 0.500000
0.426450 0.059794 -0.074536 0.000000 0.500000 0.500000
0.155189 0.253901 -0.379600 0.600000 0.000000 0.300000
-0.431718 -0.803772 0.327182 0.600000 0.300000 0.000000
0.434864 -0.019310 -0.242226 0.000000 0.500000 0.500000
0.244388 -0.352872 0.411261 0.500000 0.500000 0.000000
-0.070104 -0.241753 -0.362773 0.300000 0.600000 0.000000
0.405417 -0.546954 0.229044 0.000000 0.000000 1.000000
0.219479 -0.226145 -0.413254 0.300000 0.600000 0.000000
-0.240306 0.316741 -0.413254 0.300000 0.600000 0.000000
-0.391595 0.220121 0.293474 0.600000 0.300000 0.000000
0.117743 0.426713 -0.396427 0.300000 0.600000 0.000000
-0.360204 0.278625 0.383756 0.500000 0.000000 0.500000
0.446605 0.733252 -0.396427 0.000000 0.000000 1.000000
-0.293427 0.692841 0.411261 0.300000 0.000000 0.600000
0.366185 -0.115637 0.209722 0.600000 0.000000 0.300000
0.266075 0.145722 -0.396427 0.300000 0.600000 0.000000
-0.381238 -0.002128 0.234832 0.500000 0.000000 0.500000
0.375970 -0.790978 -0.190492 0.300000 0.000000 0.600000
-0.181575 0.207438 -0.103262 0.300000 0.000000 0.600000
-0.014523 0.589901 0.436502 0.300000 0.000000 0.600000
0.146701 0.066446 -0.379600 0.300000 0.000000 0.600000
-0.153165 -0.761788 -0.261646 0.500000 0.500000 0.000000
-0.029920 0.055686 0.411261 0.600000 0.000000 0.300000
-0.360204 -0.073833 0.233287 0.600000 0.300000 0.000000
0.405417 -0.286445 0.071745 0.500000 0.000000 0.500000
-0.404280 -0.823514 -0.396427 1.000000 0.000000 0.000000
0.094137 0.677570 0.411261 0.300000 0.000000 0.600000
-0.360204 -0.018066 -0.300014 0.600000 0.300000 0.000000
0.313452 0.215852 0.146383 0.300000 0.000000 0.600000
0.358438 -0.115637 -0.153027 0.600000 0.000000 0.300000
0.108768 -0.107224 0.388714 0.600000 0.000000 0.300000
0.476248 -0.047809 0.411261 0.300000 0.000000 0.600000
-0.360204 0.223189 0.101603 0.000000 0.500000 0.500000
-0.006784 0.786281 0.305499 0.600000 0.000000 0.300000
0.405417 -0.455404 0.360956 0.500000 0.000000 0.500000
-0.330757 0.170528 0.293192 1.000000 0.000000 0.000000
0.476931 -0.105768 0.313078 0.300000 0.000000 0.600000
0.269692 0.803108 -0.123760 0.600000 0.000000 0.300000
-0.229317 0.530514 -0.296294 1.000000 0.000000 0.000000
-0.290049 0.108972 0.436502 0.600000 0.000000 0.300000
-0.391174 0.152897 0.293474 0.600000 0.300000 0.000000
0.405417 -0.623139 0.227825 0.000000 0.000000 1.000000
0.407635 -0.430299 -0.323877 0.500000 0.000000 0.500000
-0.143783 -0.298446 -0.379600 0.300000 0.600000 0.000000
-0.381238 0.250237 -0.157362 0.500000 0.000000 0.500000
0.199193 -0.757632 -0.379600 0.000000 1.000000 0.000000
0.337976 0.642527 -0.362773 0.000000 0.000000 1.000000
0.310891 -0.430299 -0.075522 0.600000 0.000000 0.300000
0.273920 -0.430299 0.158508 0.600000 0.000000 0.300000
-0.149860 -0.396147 -0.413254 0.300000 0.600000 0.000000
0.405417 -0.566912 -0.055655 0.000000 0.000000 1.000000
0.420569 0.150698 -0.396427 0.000000 0.000000 1.000000
-0.342510 -0.506020 -0.323321 0.000000 1.000000 0.000000
-0.273798 -0.253901 -0.379600 0.300000 0.600000 0.000000
-0.381238 -0.304083 -0.048979 0.500000 0.000000 0.500000
0.193648 -0.430299 0.324449 0.600000 0.000000 0.300000
0.434864 0.258578 -0.178031 0.000000 0.500000 0.500000
0.434864 0.740881 -0.023267 0.000000 0.500000 0.500000
0.031516 -0.430299 0.337267 0.600000 0.000000 0.300000
-0.397744 -0.100496 -0.396427 0.300000 0.600000 0.000000
-0.377031 0.200307 -0.094018 0.000000 0.500000 0.500000
0.282942 0.538927 0.088240 1.000000 0.000000 0.000000
-0.389651 -0.599363 0.129070 0.500000 0.000000 0.500000
-0.247335 -0.088011 -0.413254 0.300000 0.600000 0.000000
-0.369909 0.513687 -0.103702 0.800000 0.200000 0.500000
0.434864 0.435291 0.245852 0.000000 0.500000 0.500000
-0.360204 0.637547 0.109232 0.800000 0.200000 0.500000
0.405417 -0.007782 0.146404 0.300000 0.000000 0.600000
0.426450 -0.072368 -0.217731 0.000000 0.500000 0.500000
-0.363855 -0.455539 -0.313563 0.000000 1.000000 0.000000
0.289228 -0.430299 -0.354942 0.600000 0.000000 0.300000
0.456785 0.419857 -0.396427 0.300000 0.600000 0.000000
0.435381 -0.509695 0.436502 0.800000 0.200000 0.500000
-0.177378 -0.701398 0.411261 0.800000 0.200000 0.500000
-0.249843 0.538927 -0.344236 1.000000 0.000000 0.000000
-0.395760 -0.829095 -0.307362 1.000000 0.000000 0.000000
0.127446 0.617192 0.436502 0.300000 0.000000 0.600000
0.339967 0.255870 0.436502 0.500000 0.000000 0.500000
0.055111 0.530514 0.287235 1.000000 0.000000 0.000000
-0.192330 0.538927 0.382447 1.000000 0.000000 0.000000
-0.234908 -0.753374 -0.151090 0.500000 0.500000 0.000000
0.177561 -0.397151 -0.379600 0.300000 0.600000 0.000000
0.065960 -0.115637 -0.062482 0.600000 0.000000 0.300000
-0.425578 0.192540 -0.278639 1.000000 0.000000 0.000000
-0.245380 0.786281 0.362481 0.600000 0.000000 0.300000
0.215280 -0.115637 -0.260713 0.600000 0.000000 0.300000
0.306823 0.502837 0.411261 0.300000 0.000000 0.600000
-0.097042 -0.753374 -0.088935 0.500000 0.500000 0.000000
0.116232 -0.588780 -0.362773 0.000000 1.000000 0.000000
0.405417 -0.188421 -0.233123 0.500000 0.000000 0.500000
0.434864 -0.279217 0.042838 0.000000 0.500000 0.500000
0.202100 0.538927 0.158096 1.000000 0.000000 0.000000
0.086715 0.538927 -0.018298 1.000000 0.000000 0.000000
0.405417 -0.424854 0.292522 0.500000 0.000000 0.500000
-0.193281 0.538927 -0.313942 1.000000 0.000000 0.000000
-0.370491 0.463206 -0.167067 0.300000 0.000000 0.600000
0.405417 0.653591 0.301727 0.600000 0.000000 0.300000
0.405417 0.365250 -0.239798 0.300000 0.600000 0.000000
-0.125306 -0.561254 -0.362773 0.000000 1.000000 0.000000
0.442025 0.557260 0.436502 0.300000 0.000000 0.600000
-0.389651 0.192923 -0.242597 0.500000 0.000000 0.500000
0.368614 0.786281 0.119124 0.600000 0.000000 0.300000
0.404149 -0.550020 0.377608 0.800000 0.200000 0.500000
-0.059998 -0.730971 -0.396427 0.300000 0.600000 0.000000
-0.157527 -0.637154 0.411261 0.800000 0.200000 0.500000
0.476931 0.059825 -0.316746 0.000000 0.000000 1.000000
-0.363540 0.538927 -0.165367 0.800000 0.200000 0.500000
0.315442 0.786281 0.111768 0.600000 0.000000 0.300000
0.116192 0.538927 -0.299374 1.000000 0.000000 0.000000
0.022495 -0.107224 0.179583 0.600000 0.000000 0.300000
-0.237336 -0.803855 0.413834 0.800000 0.200000 0.500000
-0.250797 -0.438712 0.058245 0.600000 0.000000 0.300000
-0.366339 -0.421995 -0.396427 0.300000 0.600000 0.000000
-0.349248 -0.455539 -0.000020 0.000000 1.000000 0.000000
-0.075528 0.786281 0.069182 0.600000 0.000000 0.300000
0.388474 -0.658118 -0.396427 0.300000 0.600000 0.000000
-0.381238 0.778709 -0.340848 1.000000 0.000000 0.000000
0.405417 0.598467 -0.044078 0.600000 0.000000 0.300000
0.434864 -0.719949 0.090843 0.000000 0.500000 0.500000
-0.389651 0.771362 0.259920 0.500000 0.000000 0.500000
0.454357 0.786281 -0.376802 0.600000 0.000000 0.300000
0.274086 0.538927 -0.019430 1.000000 0.000000 0.000000
0.152279 0.687071 0.411261 0.300000 0.000000 0.600000
-0.015793 -0.220009 0.436502 0.500000 0.500000 0.000000
0.191370 -0.107224 -0.343508 0.600000 0.000000 0.300000
-0.366537 -0.506020 0.073142 0.000000 1.000000 0.000000
0.434864 0.458754 0.138415 0.000000 0.500000 0.500000
0.426450 -0.186836 0.125765 0.000000 0.500000 0.500000
-0.012696 -0.673615 -0.396427 0.300000 0.600000 0.000000
-0.243960 0.038775 -0.396427 0.300000 0.600000 0.000000
0.358823 -0.196314 -0.413254 0.300000 0.600000 0.000000
-0.381238 0.342336 0.209190 0.500000 0.000000 0.500000
-0.352742 -0.041477 -0.379600 0.300000 0.000000 0.600000
-0.389651 0.295256 0.267998 0.500000 0.000000 0.500000
-0.360204 -0.198179 -0.257726 0.000000 0.500000 0.500000
-0.294114 0.530514 0.337605 1.000000 0.000000 0.000000
-0.362738 0.140131 -0.257016 1.000000 0.000000 0.000000
0.361989 -0.430299 -0.339873 0.600000 0.000000 0.300000
0.390458 0.513687 0.186857 0.600000 0.300000 0.000000
0.120292 -0.695199 -0.396427 0.300000 0.600000 0.000000
0.475869 0.520518 -0.278639 0.000000 0.000000 1.000000
0.476931 0.318945 0.336304 0.300000 0.000000 0.600000
0.331221 0.048551 -0.362773 0.300000 0.000000 0.600000
-0.124854 -0.115637 0.291238 0.600000 0.000000 0.300000
-0.166485 0.135028 -0.362773 0.300000 0.000000 0.600000
0.014193 0.672584 0.218409 0.800000 0.200000 0.500000
0.476931 -0.743322 0.396990 0.300000 0.000000 0.600000
0.368928 0.120116 0.436502 0.600000 0.000000 0.300000
-0.060444 -0.778614 0.346967 0.800000 0.200000 0.500000
-0.264620 -0.430299 -0.347396 0.600000 0.000000 0.300000
-0.213842 -0.753374 -0.232055 0.500000 0.500000 0.000000
-0.047311 -0.115637 -0.219235 0.600000 0.000000 0.300000
-0.360204 0.111635 -0.110866 0.600000 0.300000 0.000000
0.407710 0.786281 0.372237 0.600000 0.000000 0.300000
0.434864 0.408749 -0.242449 0.000000 0.500000 0.500000
-0.105212 0.110854 -0.379600 0.300000 0.000000 0.600000
0.405417 -0.558291 -0.287086 0.000000 0.000000 1.000000
0.380180 0.190611 -0.344324 0.000000 0.000000 1.000000
0.423403 0.631254 0.436502 0.300000 0.000000 0.600000
-0.430817 -0.087054 0.436502 0.600000 0.000000 0.300000
-0.389651 0.645338 0.004002 0.500000 0.000000 0.500000
0.434864 -0.108431 -0.072109 0.000000 0.500000 0.500000
0.031020 0.660368 -0.108946 0.800000 0.200000 0.500000
-0.419631 -0.110719 0.293474 0.600000 0.300000 0.000000
0.345338 0.538927 -0.319827 1.000000 0.000000 0.000000
0.405417 0.020172 0.276688 0.300000 0.000000 0.600000
0.318608 0.530514 -0.069781 1.000000 0.000000 0.000000
0.405417 0.560987 0.338418 0.600000 0.000000 0.300000
-0.038626 0.803108 0.279724 0.600000 0.000000 0.300000
0.405417 0.118795 0.388344 0.300000 0.000000 0.600000
0.426450 -0.801543 -0.210398 0.300000 0.000000 0.600000
-0.020085 -0.753374 0.411026 0.500000 0.500000 0.000000
0.335483 0.786281 0.304739 0.600000 0.000000 0.300000
0.462024 -0.236128 0.411261 0.300000 0.000000 0.600000
0.405417 0.268101 0.381878 0.300000 0.600000 0.000000
-0.102595 -0.107224 0.031518 0.600000 0.000000 0.300000
-0.134578 -0.430299 -0.260789 0.600000 0.000000 0.300000
-0.348635 -0.281005 0.411261 0.500000 0.500000 0.000000
0.476931 0.607650 0.326111 0.300000 0.000000 0.600000
0.239937 0.215852 0.091937 0.300000 0.000000 0.600000
-0.084738 -0.115637 0.217781 0.600000 0.000000 0.300000
0.278591 0.530514 0.208462 1.000000 0.000000 0.000000
-0.285226 0.012141 0.411261 0.600000 0.000000 0.300000
-0.338694 -0.506020 -0.043166 0.000000 1.000000 0.000000
0.434864 -0.417890 0.174989 0.000000 0.500000 0.500000
0.018373 0.530514 -0.353093 1.000000 0.000000 0.000000
0.189014 0.484540 -0.396427 0.300000 0.600000 0.000000
-0.023236 0.664040 0.440936 0.600000 0.300000 0.000000
0.300301 0.783375 -0.413254 0.300000 0.600000 0.000000
-0.388149 0.097140 0.411261 0.600000 0.300000 0.000000
0.320846 -0.430299 0.178061 0.600000 0.000000 0.300000
-0.077712 -0.529771 -0.396427 0.300000 0.600000 0.000000
0.278655 0.228906 -0.379600 0.600000 0.000000 0.300000
-0.259981 0.555140 -0.413254 0.300000 0.600000 0.000000
-0.207777 0.215852 0.077978 0.300000 0.000000 0.600000
-0.194065 -0.660445 -0.396427 0.300000 0.600000 0.000000
0.330031 0.427756 -0.362773 0.600000 0.000000 0.300000
-0.048302 0.677951 -0.396427 0.300000 0.600000 0.000000
-0.318137 -0.106749 0.407981 0.600000 0.000000 0.300000
0.368399 0.450116 -0.413254 0.300000 0.600000 0.000000
-0.378550 0.498011 0.411261 0.300000 0.000000 0.600000
-0.360204 0.669764 0.145744 0.800000 0.200000 0.500000
-0.389651 0.556650 0.192980 0.500000 0.000000 0.500000
-0.366514 -0.760169 -0.192267 0.500000 0.500000 0.000000
-0.139495 0.215852 0.201057 0.300000 0.000000 0.600000
0.405417 0.202356 0.125496 0.300000 0.600000 0.000000
0.207156 0.683044 -0.413254 0.300000 0.600000 0.000000
0.476931 -0.798544 -0.319100 0.000000 0.000000 1.000000
0.422244 0.073241 -0.108825 0.300000 0.000000 0.600000
-0.330757 -0.505241 0.397769 0.000000 1.000000 0.000000
0.088986 -0.761788 -0.154836 0.500000 0.500000 0.000000
0.405417 0.348861 0.232439 0.300000 0.600000 0.000000
0.473130 -0.328707 -0.413254 0.300000 0.600000 0.000000
0.375970 0.166026 -0.215254 0.000000 0.000000 1.000000
-0.310417 -0.107224 0.030185 0.600000 0.000000 0.300000
-0.362667 -0.316380 -0.396427 0.300000 0.600000 0.000000
0.466388 0.803108 -0.178945 0.600000 0.000000 0.300000
-0.150816 -0.761788 0.059312 0.500000 0.500000 0.000000
0.375970 0.179514 0.118447 0.000000 0.000000 1.000000
0.476931 0.502112 -0.341678 0.000000 0.000000 1.000000
-0.365451 0.530514 0.129000 0.800000 0.200000 0.500000
0.300653 -0.115637 -0.026768 0.600000 0.000000 0.300000
-0.330757 0.187019 0.123355 1.000000 0.000000 0.000000
-0.381238 0.493199 -0.383335 1.000000 0.000000 0.000000
0.209544 0.803108 0.293342 0.600000 0.000000 0.300000
-0.126190 -0.115637 0.153202 0.600000 0.000000 0.300000
-0.360204 0.732592 -0.005408 0.800000 0.200000 0.500000
0.185171 -0.563555 0.411261 0.800000 0.200000 0.500000
-0.022417 -0.761788 -0.109891 0.500000 0.500000 0.000000
-0.107752 -0.384780 -0.379600 0.300000 0.600000 0.000000
0.426450 -0.157757 -0.196762 0.000000 0.500000 0.500000
0.434864 0.402872 -0.070100 0.000000 0.500000 0.500000
-0.431718 0.544265 -0.368083 1.000000 0.000000 0.000000
-0.430597 0.769815 -0.396427 0.300000 0.600000 0.000000
-0.360204 -0.635897 0.062689 1.000000 0.000000 0.000000
0.173801 0.215852 0.370423 0.300000 0.000000 0.600000
0.426450 0.144789 -0.197093 0.000000 0.500000 0.500000
0.473466 0.016141 -0.396427 0.000000 0.000000 1.000000
0.252669 0.723975 -0.396427 0.300000 0.600000 0.000000
-0.320069 0.353566 -0.413254 0.300000 0.600000 0.000000
-0.427430 0.373438 0.436502 0.500000 0.000000 0.500000
-0.360204 -0.020112 0.306872 0.600000 0.300000 0.000000
0.396839 0.190611 -0.248249 0.000000 0.000000 1.000000
-0.357442 0.786281 0.113653 0.600000 0.000000 0.300000
-0.308125 -0.438712 -0.268342 0.600000 0.000000 0.300000
0.426450 -0.380714 0.026158 0.000000 0.500000 0.500000
-0.285810 0.538927 -0.088002 1.000000 0.000000 0.000000
0.426450 0.153940 0.214205 0.000000 0.000000 1.000000
0.443452 -0.419756 -0.413254 0.300000 0.600000 0.000000
-0.236842 -0.731002 -0.396427 0.300000 0.600000 0.000000
-0.360204 -0.222205 0.285961 0.000000 0.500000 0.500000
-0.389651 -0.155988 0.181745 0.500000 0.000000 0.500000
-0.105253 0.530514 0.208533 1.000000 0.000000 0.000000
0.422244 0.337101 -0.292377 0.300000 0.600000 0.000000
0.325299 -0.532665 0.436502 0.800000 0.200000 0.500000
-0.074270 0.538927 0.358461 1.000000 0.000000 0.000000
-0.018161 -0.430299 -0.097975 0.600000 0.000000 0.300000
-0.041060 -0.628719 -0.362773 0.000000 1.000000 0.000000
0.131295 0.152131 0.411261 0.600000 0.000000 0.300000
-0.014895 0.755950 0.436502 0.300000 0.000000 0.600000
-0.196174 0.707390 -0.396427 0.300000 0.600000 0.000000
0.109814 -0.380808 -0.379600 0.300000 0.600000 0.000000
0.434864 -0.742005 -0.183301 0.000000 0.500000 0.500000
0.423611 -0.455539 -0.251985 1.000000 0.000000 0.000000
-0.085810 0.080102 -0.413254 0.300000 0.600000 0.000000
-0.083271 0.291144 -0.396427 0.300000 0.600000 0.000000
0.311343 -0.742468 0.436502 0.800000 0.200000 0.500000
-0.381238 0.036088 0.056346 0.500000 0.000000 0.500000
0.422244 0.616172 -0.159278 0.600000 0.000000 0.300000
-0.302410 -0.761788 0.219011 0.500000 0.500000 0.000000
0.174978 -0.735819 0.411261 0.800000 0.200000 0.500000
-0.210504 0.572738 0.411261 0.300000 0.000000 0.600000
0.346395 -0.389018 -0.396427 0.300000 0.600000 0.000000
-0.343740 -0.182944 0.030769 0.300000 0.600000 0.000000
0.366984 -0.543221 0.411261 0.800000 0.200000 0.500000
0.115311 0.207438 -0.185053 0.300000 0.000000 0.600000
0.405417 -0.274958 -0.010455 0.500000 0.000000 0.500000
0.382857 -0.455539 0.243600 1.000000 0.000000 0.000000
-0.389651 -0.706653 0.267214 0.500000 0.000000 0.500000
-0.367662 -0.182944 -0.174132 0.300000 0.600000 0.000000
-0.090805 0.540568 -0.362773 0.000000 0.000000 1.000000
0.205694 -0.438712 0.122379 0.600000 0.000000 0.300000
-0.166262 -0.602432 -0.362773 0.000000 1.000000 0.000000
-0.293387 0.557927 0.436502 0.300000 0.000000 0.600000
-0.381238 0.370211 -0.005408 0.500000 0.000000 0.500000
0.348430 -0.494136 0.411261 0.800000 0.200000 0.500000
-0.266733 -0.497376 -0.396427 0.300000 0.600000 0.000000
0.123816 -0.107224 -0.054929 0.600000 0.000000 0.300000
0.071613 -0.430299 0.321430 0.600000 0.000000 0.300000
-0.381238 0.598642 -0.001950 0.500000 0.000000 0.500000
-0.360204 0.370789 -0.043667 0.000000 0.500000 0.500000
0.340174 0.719062 -0.379600 0.000000 0.000000 1.000000
0.405417 0.675816 -0.217654 0.600000 0.000000 0.300000
0.158321 0.215852 -0.305390 0.300000 0.000000 0.600000
0.065859 0.215852 -0.220086 0.300000 0.000000 0.600000
0.413704 -0.829095 0.059323 0.300000 0.000000 0.600000
-0.360204 0.268687 0.018107 0.000000 0.500000 0.500000
-0.389651 -0.396624 -0.014082 0.500000 0.000000 0.500000
-0.186603 -0.051198 -0.413254 0.300000 0.600000 0.000000
0.308818 -0.681521 -0.396427 0.300000 0.600000 0.000000
0.405417 -0.366461 0.395007 0.500000 0.500000 0.000000
0.212114 0.065478 -0.413254 0.300000 0.600000 0.000000
0.375970 -0.827856 0.118941 0.300000 0.000000 0.600000
0.422244 -0.067535 0.268287 0.300000 0.000000 0.600000
-0.333962 0.786281 0.376711 0.600000 0.000000 0.300000
-0.360204 -0.584355 -0.197496 1.000000 0.000000 0.000000
0.327131 -0.107224 0.238635 0.600000 0.000000 0.300000
-0.186358 0.786281 0.007763 0.600000 0.000000 0.300000
0.422244 -0.730329 -0.312938 0.000000 0.000000 1.000000
0.099034 0.215852 -0.058176 0.300000 0.000000 0.600000
-0.360204 0.334367 -0.207246 0.000000 0.500000 0.500000
0.062856 0.215852 0.379901 0.300000 0.000000 0.600000
0.426450 -0.335232 0.325390 0.300000 0.000000 0.600000
0.229755 -0.107224 0.191524 0.600000 0.000000 0.300000
-0.195104 -0.107224 0.061443 0.600000 0.000000 0.300000
-0.381238 -0.621667 -0.307141 1.000000 0.000000 0.000000
-0.116109 -0.092467 -0.413254 0.300000 0.600000 0.000000
-0.206598 -0.154325 -0.396427 0.300000 0.600000 0.000000
0.315154 0.207438 -0.080469 0.300000 0.000000 0.600000
0.028468 0.207438 0.111058 0.300000 0.000000 0.600000
0.068603 0.786281 -0.280568 0.600000 0.000000 0.300000
0.374809 -0.438712 0.379117 0.600000 0.000000 0.300000
0.278121 0.803108 0.007367 0.600000 0.000000 0.300000
-0.030371 0.246732 -0.396427 0.300000 0.600000 0.000000
-0.223906 -0.430299 0.174525 0.600000 0.000000 0.300000
0.405417 -0.257846 0.208485 0.500000 0.000000 0.500000
0.470832 0.156549 0.293474 0.300000 0.000000 0.600000
0.108145 -0.576153 0.411261 0.800000 0.200000 0.500000
-0.377031 0.723964 -0.355818 0.800000 0.200000 0.500000
0.236906 -0.396788 -0.362773 0.300000 0.600000 0.000000
-0.426348 -0.525495 -0.413254 0.300000 0.600000 0.000000
-0.360204 -0.589781 0.274435 1.000000 0.000000 0.000000
0.019018 0.215852 0.192876 0.300000 0.000000 0.600000
-0.319719 0.396746 0.377608 0.500000 0.000000 0.500000
0.247271 0.654131 0.411261 0.300000 0.000000 0.600000
0.189533 -0.638125 0.411261 0.800000 0.200000 0.500000
0.439914 0.786281 0.242999 0.600000 0.000000 0.300000
0.157371 0.759469 0.436502 0.300000 0.000000 0.600000
-0.388010 0.732089 0.293474 0.600000 0.300000 0.000000
-0.360204 -0.540375 0.176948 1.000000 0.000000 0.000000
-0.086210 0.786281 -0.327301 0.600000 0.000000 0.300000
-0.241274 -0.697028 0.411261 0.800000 0.200000 0.500000
0.434864 -0.696178 -0.131780 0.000000 0.500000 0.500000
0.240792 -0.127182 -0.413254 0.300000 0.600000 0.000000
0.434864 -0.017721 0.106301 0.000000 0.500000 0.500000
0.142757 -0.829095 0.385391 0.800000 0.200000 0.500000
-0.365333 -0.132464 0.248408 0.600000 0.300000 0.000000
0.014193 0.663784 0.120639 0.800000 0.200000 0.500000
-0.237279 0.236005 -0.379600 0.600000 0.000000 0.300000
0.031020 0.726321 0.165202 0.800000 0.200000 0.500000
0.426450 -0.792320 -0.077471 0.300000 0.000000 0.600000
0.434864 -0.554385 0.159109 0.000000 0.500000 0.500000
0.360385 0.538927 0.353507 1.000000 0.000000 0.000000
0.146141 0.207438 0.112483 0.300000 0.000000 0.600000
0.436084 0.267223 -0.278639 0.000000 0.000000 1.000000
-0.360204 0.317802 -0.153055 0.000000 0.500000 0.500000
0.063149 0.229645 0.436502 0.500000 0.000000 0.500000
0.375970 -0.172055 -0.264012 0.000000 0.500000 0.500000
0.366374 -0.008281 0.411261 0.600000 0.000000 0.300000
0.327357 0.215852 0.316266 0.300000 0.000000 0.600000
0.372376 0.576318 0.411261 0.300000 0.000000 0.600000
-0.356297 0.538927 0.379530 0.300000 0.000000 0.600000
-0.360204 -0.068158 0.305657 0.600000 0.300000 0.000000
-0.043532 -0.317478 -0.396427 0.300000 0.600000 0.000000
0.426450 0.304103 0.403678 0.300000 0.000000 0.600000
-0.381238 0.342427 0.146309 0.500000 0.000000 0.500000
0.411479 0.136766 0.278975 0.300000 0.000000 0.600000
-0.255802 -0.215127 -0.396427 0.300000 0.600000 0.000000
-0.260022 -0.107224 -0.025904 0.600000 0.000000 0.300000
0.461474 0.095450 -0.396427 0.300000 0.600000 0.000000
0.309778 -0.228985 0.436502 0.500000 0.500000 0.000000
0.062394 0.530514 0.007238 1.000000 0.000000 0.000000
0.426450 0.316603 -0.386280 0.000000 0.000000 1.000000
-0.389651 -0.258065 -0.092638 0.500000 0.000000 0.500000
-0.267608 -0.430299 0.112515 0.600000 0.000000 0.300000
0.305750 -0.761788 -0.110320 0.500000 0.500000 0.000000
-0.360204 0.687160 -0.241119 0.800000 0.200000 0.500000
-0.389651 -0.753965 0.074360 0.500000 0.000000 0.500000
0.434864 0.408781 -0.157450 0.000000 0.500000 0.500000
0.298181 0.803108 -0.336046 0.600000 0.000000 0.300000
0.148043 0.719972 0.436502 0.300000 0.000000 0.600000
0.426754 -0.005425 -0.396427 0.300000 0.600000 0.000000
-0.241374 0.729149 -0.396427 0.300000 0.600000 0.000000
-0.043801 -0.107224 0.364229 0.600000 0.000000 0.300000
0.426450 -0.737911 0.183101 0.000000 0.500000 0.500000
-0.015311 -0.528601 -0.396427 0.300000 0.600000 0.000000
-0.252932 0.786281 -0.233620 0.600000 0.000000 0.300000
0.060304 -0.753374 0.326362 0.500000 0.500000 0.000000
0.122722 -0.438712 0.153328 0.600000 0.000000 0.300000
-0.239418 -0.753374 0.365330 0.500000 0.500000 0.000000
-0.306454 -0.753374 0.348050 0.500000 0.500000 0.000000
-0.360204 0.413304 -0.281423 0.000000 0.500000 0.500000
-0.360204 -0.211876 0.202205 0.000000 0.500000 0.500000
-0.389651 0.290031 -0.056919 0.500000 0.000000 0.500000
0.358125 -0.236377 0.411261 0.500000 0.500000 0.000000
0.152004 0.643816 0.411261 0.300000 0.000000 0.600000
0.052929 -0.753374 0.034751 0.500000 0.500000 0.000000
-0.097722 0.017690 -0.396427 0.300000 0.600000 0.000000
0.086542 -0.107224 0.025678 0.600000 0.000000 0.300000
0.405417 -0.034298 0.046863 0.300000 0.000000 0.600000
0.269349 0.530514 0.134339 1.000000 0.000000 0.000000
0.101310 0.803108 -0.043442 0.600000 0.000000 0.300000
0.316147 -0.430299 -0.164540 0.600000 0.000000 0.300000
0.422244 -0.586243 0.121150 0.000000 0.000000 1.000000
-0.381238 -0.663243 0.210076 0.500000 0.000000 0.500000
-0.354598 0.215852 0.223374 0.300000 0.000000 0.600000
0.137884 0.786281 0.402915 0.600000 0.000000 0.300000
0.434864 0.647417 -0.213017 0.000000 0.500000 0.500000
-0.389651 -0.704046 0.081150 0.500000 0.000000 0.500000
-0.354680 -0.107224 -0.149900 0.600000 0.000000 0.300000
-0.407731 0.458479 0.411261 0.600000 0.300000 0.000000
0.086828 0.677553 -0.362773 0.000000 0.000000 1.000000
0.018400 0.537207 0.279179 0.800000 0.200000 0.500000
-0.344192 0.673501 -0.413254 0.300000 0.600000 0.000000
0.225154 -0.438712 0.162380 0.600000 0.000000 0.300000
-0.330806 0.734861 -0.379600 0.000000 0.000000 1.000000
0.314597 -0.804344 0.293474 0.800000 0.200000 0.500000
-0.011156 0.072377 -0.413254 0.300000 0.600000 0.000000
-0.358452 -0.357795 -0.413254 0.300000 0.600000 0.000000
-0.368618 -0.436440 0.176937 0.000000 0.500000 0.500000
-0.360204 -0.126672 0.360896 0.600000 0.300000 0.000000
-0.144067 -0.127593 0.411261 0.600000 0.000000 0.300000
-0.360204 0.455766 -0.087181 0.000000 0.500000 0.500000
-0.175756 -0.403322 -0.379600 0.300000 0.600000 0.000000
0.405417 -0.560483 0.065322 0.000000 0.000000 1.000000
0.335498 -0.092136 0.411261 0.600000 0.000000 0.300000
-0.360204 -0.593772 0.162675 1.000000 0.000000 0.000000
0.298717 0.263965 -0.362773 0.600000 0.000000 0.300000
0.422244 -0.234436 0.335402 0.500000 0.000000 0.500000
0.476931 -0.434638 0.398702 0.300000 0.000000 0.600000
-0.198427 0.786281 -0.380831 0.600000 0.000000 0.300000
-0.232837 -0.209509 0.411261 0.500000 0.500000 0.000000
0.438100 0.708484 0.436502 0.300000 0.000000 0.600000
0.231401 0.530514 -0.048085 1.000000 0.000000 0.000000
-0.360204 -0.579058 -0.039191 1.000000 0.000000 0.000000
0.213352 -0.672640 -0.362773 0.000000 1.000000 0.000000
0.422244 -0.027826 -0.165578 0.300000 0.000000 0.600000
-0.120489 0.133848 0.436502 0.600000 0.000000 0.300000
-0.400247 -0.785900 0.411261 0.800000 0.200000 0.500000
0.027485 -0.753374 -0.366444 0.500000 0.500000 0.000000
0.382680 0.173926 -0.413254 0.300000 0.600000 0.000000
0.434864 0.488805 -0.076434 0.000000 0.500000 0.500000
-0.122338 0.207438 0.389951 0.300000 0.000000 0.600000
-0.158016 0.803108 -0.147158 0.600000 0.000000 0.300000
0.163740 0.263449 0.436502 0.500000 0.000000 0.500000
0.306674 0.452304 0.411261 0.500000 0.000000 0.500000
0.355798 -0.319106 -0.362773 0.300000 0.600000 0.000000
-0.161930 -0.107224 -0.130214 0.600000 0.000000 0.300000
0.023542 -0.433800 -0.379600 0.300000 0.600000 0.000000
-0.198419 -0.071586 0.436502 0.600000 0.000000 0.300000
-0.142920 -0.623630 -0.379600 0.000000 1.000000 0.000000
-0.100034 0.568950 0.436502 0.300000 0.000000 0.600000
-0.309130 -0.226194 -0.413254 0.300000 0.600000 0.000000
-0.146712 -0.156925 -0.396427 0.300000 0.600000 0.000000
-0.177814 -0.712060 -0.413254 0.300000 0.600000 0.000000
0.248034 -0.761788 -0.189718 0.500000 0.500000 0.000000
0.315725 0.530514 -0.234285 1.000000 0.000000 0.000000
0.020513 -0.370552 -0.396427 0.300000 0.600000 0.000000
-0.219650 -0.761788 -0.264715 0.500000 0.500000 0.000000
0.176687 -0.115637 0.080332 0.600000 0.000000 0.300000
0.087937 -0.438712 -0.028953 0.600000 0.000000 0.300000
0.476931 0.401486 0.350728 0.300000 0.000000 0.600000
-0.053946 0.059160 -0.396427 0.300000 0.600000 0.000000
0.399058 -0.584775 -0.413254 0.300000 0.600000 0.000000
0.413405 -0.438712 0.207424 0.500000 0.000000 0.500000
0.223830 -0.708040 0.436502 0.800000 0.200000 0.500000
0.398243 0.241285 -0.413254 0.300000 0.600000 0.000000
0.410734 -0.759550 0.419675 0.800000 0.200000 0.500000
-0.400810 0.728521 0.411261 0.300000 0.000000 0.600000
0.282554 0.786281 -0.022843 0.600000 0.000000 0.300000
-0.360204 0.424329 0.157025 0.000000 0.500000 0.500000
-0.332487 -0.107224 -0.317623 0.600000 0.000000 0.300000
-0.200832 0.208279 -0.413254 0.300000 0.600000 0.000000
-0.055672 -0.310539 -0.362773 0.300000 0.600000 0.000000
-0.217910 -0.032485 0.436502 0.600000 0.000000 0.300000
0.010894 0.766721 -0.413254 0.300000 0.600000 0.000000
-0.157322 -0.778614 0.377452 0.800000 0.200000 0.500000
0.426450 -0.137477 0.349924 0.300000 0.000000 0.600000
0.434864 -0.008840 0.042522 0.000000 0.500000 0.500000
0.403098 -0.540758 -0.379600 0.000000 1.000000 0.000000
0.058046 -0.107224 0.344231 0.600000 0.000000 0.300000
-0.339270 -0.506020 0.146802 0.000000 1.000000 0.000000
-0.431718 -0.089809 0.380700 0.600000 0.300000 0.000000
-0.314200 0.639419 -0.379600 0.000000 0.000000 1.000000
0.405417 0.330456 -0.254052 0.300000 0.600000 0.000000
-0.334743 0.140131 0.161740 1.000000 0.000000 0.000000
0.404845 0.077619 -0.396427 0.300000 0.600000 0.000000
0.237065 -0.438712 0.032318 0.600000 0.000000 0.300000
-0.057170 -0.753374 0.161189 0.500000 0.500000 0.000000
-0.047489 -0.595901 0.411261 0.800000 0.200000 0.500000
0.476931 0.146738 0.379530 0.300000 0.000000 0.600000
-0.235942 0.708328 0.436502 0.300000 0.000000 0.600000
-0.389651 -0.240766 0.275612 0.500000 0.000000 0.500000
-0.182145 0.008592 0.411261 0.600000 0.000000 0.300000
0.014193 0.686887 -0.146274 0.800000 0.200000 0.500000
0.195523 0.530514 -0.312844 1.000000 0.000000 0.000000
0.405417 -0.747032 0.361443 0.000000 0.000000 1.000000
-0.112200 -0.761788 0.084736 0.500000 0.500000 0.000000
-0.084849 0.394705 -0.396427 0.300000 0.600000 0.000000
0.334328 -0.351259 -0.396427 0.300000 0.600000 0.000000
-0.234500 0.092219 -0.362773 0.300000 0.000000 0.600000
-0.146393 0.483438 0.411261 0.500000 0.000000 0.500000
0.456401 0.757515 0.436502 0.300000 0.000000 0.600000
-0.360204 -0.240097 -0.107676 0.000000 0.500000 0.500000
-0.277404 0.478815 0.411261 0.500000 0.000000 0.500000
0.081642 -0.803855 0.423316 0.800000 0.200000 0.500000
0.375970 0.484890 0.289273 0.600000 0.300000 0.000000
0.000129 0.538927 -0.123357 1.000000 0.000000 0.000000
0.156495 -0.789253 0.436502 0.800000 0.200000 0.500000
0.434864 -0.652134 -0.208939 0.000000 0.500000 0.500000
0.328719 0.608955 -0.379600 0.000000 0.000000 1.000000
-0.025702 0.414587 -0.396427 0.300000 0.600000 0.000000
0.319358 0.207438 0.011813 0.300000 0.000000 0.600000
-0.045348 0.635324 -0.396427 0.300000 0.600000 0.000000
-0.378635 0.011674 0.436502 0.600000 0.000000 0.300000
0.476931 0.019775 -0.301741 0.000000 0.000000 1.000000
0.442138 0.416111 0.436502 0.500000 0.000000 0.500000
-0.377031 -0.429468 -0.031661 0.000000 0.500000 0.500000
0.189796 0.207438 -0.102295 0.300000 0.000000 0.600000
-0.242790 0.405351 0.436502 0.500000 0.000000 0.500000
0.076636 0.529463 -0.396427 0.300000 0.600000 0.000000
0.116582 0.671198 -0.379600 0.000000 0.000000 1.000000
-0.353703 -0.408533 0.411261 0.500000 0.500000 0.000000
0.426450 -0.742871 -0.216249 0.000000 0.500000 0.500000
-0.381238 -0.682398 0.358830 0.600000 0.300000 0.000000
-0.091109 0.786281 -0.044747 0.600000 0.000000 0.300000
-0.159834 -0.438712 0.386732 0.600000 0.000000 0.300000
-0.389651 0.331116 -0.230721 0.500000 0.000000 0.500000
-0.381238 -0.790707 -0.352262 1.000000 0.000000 0.000000
-0.129472 -0.820855 -0.413254 0.300000 0.600000 0.000000
-0.165717 -0.761788 0.315380 0.500000 0.500000 0.000000
-0.000928 -0.438712 -0.276360 0.600000 0.000000 0.300000
-0.381238 -0.560315 0.339553 0.600000 0.300000 0.000000
0.434864 0.756138 0.192570 0.000000 0.500000 0.500000
0.274329 -0.430299 0.291402 0.600000 0.000000 0.300000
0.422244 0.659481 0.126173 0.600000 0.000000 0.300000
-0.389651 0.761595 -0.184828 0.500000 0.000000 0.500000
-0.389651 -0.492593 0.209157 0.500000 0.000000 0.500000
0.402418 -0.107224 0.135274 0.600000 0.000000 0.300000
0.259003 -0.560140 -0.362773 0.000000 1.000000 0.000000
0.215537 0.369779 -0.362773 0.600000 0.000000 0.300000
-0.376119 0.459841 0.385452 0.000000 0.500000 0.500000
-0.360204 -0.728863 -0.242504 1.000000 0.000000 0.000000
0.294005 -0.438712 -0.263411 0.600000 0.000000 0.300000
-0.189917 -0.221999 -0.379600 0.300000 0.600000 0.000000
-0.068249 -0.570834 -0.396427 0.300000 0.600000 0.000000
-0.366303 0.786281 0.050450 0.600000 0.000000 0.300000
-0.294229 0.530514 -0.273507 1.000000 0.000000 0.000000
0.405417 -0.262593 -0.146153 0.500000 0.000000 0.500000
0.191223 0.207438 -0.352966 0.300000 0.000000 0.600000
-0.154109 0.190611 -0.368038 0.600000 0.000000 0.300000
-0.345034 -0.778614 -0.326721 0.600000 0.000000 0.300000
0.405417 0.339073 -0.009348 0.300000 0.600000 0.000000
0.363900 -0.341164 0.436502 0.500000 0.500000 0.000000
-0.368611 -0.759318 -0.379600 0.000000 1.000000 0.000000
0.405417 0.331939 -0.061837 0.300000 0.600000 0.000000
0.403838 0.803108 0.403379 0.600000 0.000000 0.300000
0.146225 -0.650736 -0.396427 0.300000 0.600000 0.000000
-0.381238 -0.637292 0.328033 0.600000 0.300000 0.000000
0.426450 0.716036 -0.224744 0.000000 0.500000 0.500000
-0.314527 0.342683 0.411261 0.500000 0.000000 0.500000
-0.162451 -0.024100 -0.396427 0.300000 0.600000 0.000000
0.096224 0.373637 -0.413254 0.300000 0.600000 0.000000
0.422244 -0.772333 0.225998 0.000000 0.000000 1.000000
0.426450 -0.425681 0.087183 0.000000 0.500000 0.500000
-0.360204 0.407017 0.399266 0.000000 0.500000 0.500000
0.454960 0.349358 -0.396427 0.300000 0.600000 0.000000
0.014193 0.656179 0.363994 0.800000 0.200000 0.500000
0.422244 0.270011 0.027103 0.300000 0.600000 0.000000
-0.315227 -0.829095 0.376136 0.800000 0.200000 0.500000
0.266470 -0.115637 -0.323503 0.600000 0.000000 0.300000
-0.377031 0.295715 -0.342075 0.000000 0.500000 0.500000
0.426450 -0.003167 0.226484 0.000000 0.500000 0.500000
0.422244 -0.063869 -0.181558 0.300000 0.000000 0.600000
0.409614 -0.132464 -0.071322 0.300000 0.000000 0.600000
0.098319 0.290437 0.411261 0.500000 0.000000 0.500000
-0.123810 0.600609 0.436502 0.300000 0.000000 0.600000
-0.087526 0.588050 -0.396427 0.300000 0.600000 0.000000
-0.043328 0.087575 -0.362773 0.300000 0.000000 0.600000
0.261296 -0.829095 0.321947 0.800000 0.200000 0.500000
0.329106 -0.205882 0.411261 0.500000 0.500000 0.000000
-0.360204 0.770503 -0.314375 0.800000 0.200000 0.500000
0.375970 -0.493131 -0.126064 1.000000 0.000000 0.000000
-0.079811 0.120348 0.411261 0.600000 0.000000 0.300000
-0.041019 -0.238074 -0.413254 0.300000 0.600000 0.000000
-0.259051 -0.655671 -0.362773 0.000000 1.000000 0.000000
0.100908 -0.430299 0.371628 0.600000 0.000000 0.300000
0.426450 0.758564 0.037717 0.000000 0.500000 0.500000
0.145140 0.610895 -0.362773 0.000000 0.000000 1.000000
-0.114614 -0.438712 -0.136144 0.600000 0.000000 0.300000
0.395803 -0.430299 0.327870 0.600000 0.000000 0.300000
0.405417 0.406991 0.000082 0.300000 0.600000 0.000000
0.195559 0.244799 -0.396427 0.300000 0.600000 0.000000
0.348113 0.144274 -0.413254 0.300000 0.600000 0.000000
-0.188645 0.459841 -0.374480 0.600000 0.000000 0.300000
0.476931 0.186604 0.389554 0.300000 0.000000 0.600000
-0.050453 -0.430299 0.154721 0.600000 0.000000 0.300000
0.286952 -0.193418 -0.413254 0.300000 0.600000 0.000000
-0.360204 0.367335 0.101655 0.000000 0.500000 0.500000
-0.044982 0.298712 0.436502 0.500000 0.000000 0.500000
0.028572 0.453851 0.436502 0.500000 0.000000 0.500000
-0.400571 0.347023 0.411261 0.500000 0.000000 0.500000
0.429764 0.768851 -0.396427 0.000000 0.000000 1.000000
0.236615 0.559651 -0.362773 0.000000 0.000000 1.000000
0.065559 -0.339703 0.455048 0.000000 0.000000 1.000000
-0.360204 -0.618384 0.032499 1.000000 0.000000 0.000000
0.434864 -0.768916 0.079759 0.000000 0.500000 0.500000
0.097828 0.215852 0.187604 0.300000 0.000000 0.600000
0.166843 -0.273297 -0.362773 0.300000 0.600000 0.000000
0.312558 0.530514 0.207749 1.000000 0.000000 0.000000
-0.210415 -0.430299 -0.056180 0.600000 0.000000 0.300000
0.476931 -0.679775 -0.310058 0.000000 0.000000 1.000000
0.256007 -0.007694 0.436502 0.600000 0.000000 0.300000
0.120572 -0.635481 0.436502 0.800000 0.200000 0.500000
-0.140176 -0.430299 0.205272 0.600000 0.000000 0.300000
-0.361312 0.140131 -0.147723 1.000000 0.000000 0.000000
-0.277655 0.786281 0.137153 0.600000 0.000000 0.300000
0.248659 0.402138 -0.413254 0.300000 0.600000 0.000000
-0.032958 -0.090683 0.411261 0.600000 0.000000 0.300000
0.356658 0.786281 -0.334207 0.600000 0.000000 0.300000
-0.090773 -0.358347 -0.362773 0.300000 0.600000 0.000000
0.434864 0.157992 0.087825 0.000000 0.500000 0.500000
0.087173 0.215852 0.006672 0.300000 0.000000 0.600000
-0.383787 -0.829095 -0.022929 0.500000 0.000000 0.500000
0.474940 0.236286 -0.396427 0.300000 0.600000 0.000000
0.434864 0.287679 0.152538 0.000000 0.500000 0.500000
-0.097419 -0.107224 -0.282189 0.600000 0.000000 0.300000
0.381372 -0.116513 -0.379600 0.300000 0.000000 0.600000
-0.143836 -0.230842 -0.413254 0.300000 0.600000 0.000000
0.434864 -0.275637 -0.096412 0.000000 0.500000 0.500000
-0.227649 -0.115637 -0.294190 0.600000 0.000000 0.300000
-0.253170 -0.578406 -0.396427 0.300000 0.600000 0.000000
0.434864 0.137200 -0.152555 0.000000 0.500000 0.500000
-0.381238 -0.291231 0.378676 0.600000 0.300000 0.000000
-0.362958 -0.761788 -0.011488 0.500000 0.500000 0.000000
-0.260705 0.663815 -0.396427 0.300000 0.600000 0.000000
-0.299118 -0.027473 -0.396427 0.300000 0.600000 0.000000
-0.337956 -0.829095 -0.409645 0.300000 0.600000 0.000000
-0.409549 0.228869 -0.396427 1.000000 0.000000 0.000000
-0.349975 0.562449 0.411261 0.300000 0.000000 0.600000
-0.389355 -0.469802 -0.396427 1.000000 0.000000 0.000000
-0.145882 -0.365074 -0.379600 0.300000 0.600000 0.000000
-0.315989 -0.292071 -0.362773 0.300000 0.600000 0.000000
-0.329078 -0.189426 0.436502 0.500000 0.500000 0.000000
-0.377031 0.245218 -0.321903 0.000000 0.500000 0.500000
0.405417 -0.282397 0.264649 0.500000 0.000000 0.500000
-0.377031 -0.275581 0.029908 0.000000 0.500000 0.500000
0.434864 -0.658110 0.257336 0.000000 0.500000 0.500000
-0.381238 -0.375925 -0.047511 0.500000 0.000000 0.500000
-0.382795 -0.750678 -0.413254 0.300000 0.600000 0.000000
0.426450 0.419295 0.332414 0.300000 0.000000 0.600000
-0.431718 0.711668 -0.347290 1.000000 0.000000 0.000000
0.025525 -0.107224 0.407559 0.600000 0.000000 0.300000
0.015883 -0.107224 -0.178768 0.600000 0.000000 0.300000
0.434864 0.173128 -0.053096 0.000000 0.500000 0.500000
0.198562 -0.438712 -0.347345 0.600000 0.000000 0.300000
0.252847 -0.115637 0.155760 0.600000 0.000000 0.300000
0.248994 -0.822122 -0.396427 0.300000 0.600000 0.000000
-0.017547 0.538927 -0.006721 1.000000 0.000000 0.000000
-0.195734 0.552805 -0.362773 0.000000 0.000000 1.000000
0.405417 -0.519917 0.130394 0.000000 0.000000 1.000000
0.203159 0.153397 0.436502 0.600000 0.000000 0.300000
0.406772 0.803108 -0.376581 0.600000 0.000000 0.300000
-0.360204 0.659349 -0.189140 0.800000 0.200000 0.500000
-0.302295 0.636435 -0.413254 0.300000 0.600000 0.000000
0.245293 -0.761788 -0.051216 0.500000 0.500000 0.000000
-0.301813 0.507393 -0.396427 0.300000 0.600000 0.000000
-0.098940 0.803108 0.348931 0.600000 0.000000 0.300000
-0.139372 -0.115637 -0.343684 0.600000 0.000000 0.300000
-0.425479 -0.361886 0.293474 0.600000 0.300000 0.000000
0.149068 0.307376 0.411261 0.500000 0.000000 0.500000
-0.069646 -0.397783 0.436502 0.500000 0.500000 0.000000
0.058843 0.359629 0.411261 0.500000 0.000000 0.500000
0.405417 -0.572181 -0.219299 0.000000 0.000000 1.000000
0.082177 0.207438 0.415275 0.500000 0.000000 0.500000
-0.229902 -0.761788 0.252272 0.500000 0.500000 0.000000
-0.047332 0.348417 0.411261 0.500000 0.000000 0.500000
-0.431718 0.407161 -0.393121 1.000000 0.000000 0.000000
-0.377031 -0.345101 0.351805 0.000000 0.500000 0.500000
0.405417 -0.257346 -0.058899 0.500000 0.000000 0.500000
0.051123 0.538927 0.054784 1.000000 0.000000 0.000000
0.405417 -0.233186 0.025153 0.500000 0.000000 0.500000
-0.085572 -0.168817 0.411261 0.500000 0.500000 0.000000
0.476931 -0.131849 -0.368600 0.000000 0.000000 1.000000
-0.377031 0.425685 -0.249461 0.000000 0.500000 0.500000
0.434864 0.177675 -0.092537 0.000000 0.500000 0.500000
0.426450 0.251193 -0.387796 0.000000 0.000000 1.000000
0.107635 -0.227962 -0.413254 0.300000 0.600000 0.000000
-0.357453 0.247054 0.436502 0.500000 0.000000 0.500000
-0.354289 -0.132464 0.008301 0.300000 0.600000 0.000000
0.115954 -0.115637 0.120501 0.600000 0.000000 0.300000
-0.075103 -0.799487 -0.413254 0.300000 0.600000 0.000000
-0.400681 0.786281 -0.048849 0.600000 0.000000 0.300000
-0.418096 -0.423632 -0.278639 1.000000 0.000000 0.000000
-0.315586 0.517339 -0.362773 0.000000 0.000000 1.000000
0.398362 -0.551263 0.436502 0.800000 0.200000 0.500000
-0.324779 0.344671 -0.379600 0.600000 0.000000 0.300000
0.273746 0.803108 0.329675 0.600000 0.000000 0.300000
-0.360204 0.354918 0.269160 0.000000 0.500000 0.500000
0.405417 -0.312600 -0.176359 0.500000 0.000000 0.500000
-0.389651 -0.829025 0.256487 0.500000 0.000000 0.500000
0.426450 -0.139347 -0.365272 0.000000 0.500000 0.500000
-0.381238 -0.810200 0.102963 0.500000 0.000000 0.500000
0.124089 -0.761788 -0.233295 0.500000 0.500000 0.000000
-0.317240 -0.106328 -0.413254 0.300000 0.600000 0.000000
0.476931 0.469693 0.298009 0.300000 0.000000 0.600000
-0.092432 -0.829095 0.352511 0.800000 0.200000 0.500000
