ply
format ascii 1.0
element vertex 637
property float x
property float y
property float z
property float nx
property float ny
property float nz
property uchar red
property uchar green
property uchar blue
property float opacity
end_header
0.353467 0.131979 -0.396427 0.000000 0.000000 1.000000 144 80 40 1.000000
-0.377031 0.781745 0.256486 -1.000000 0.000000 0.000000 150 91 49 1.000000
-0.381238 -0.139299 -0.327777 -1.000000 0.000000 0.000000 157 91 45 1.000000
0.432895 -0.086899 -0.396427 0.000000 0.000000 -1.000000 148 84 35 1.000000
0.165687 -0.430299 0.330405 0.000000 -1.000000 0.000000 152 88 48 1.000000
0.434864 -0.570434 0.205849 -1.000000 0.000000 0.000000 157 91 45 1.000000
-0.362541 -0.379421 0.436502 0.000000 0.000000 1.000000 154 88 40 1.000000
0.384237 -0.111623 -0.413254 0.000000 0.000000 1.000000 145 80 38 1.000000
0.434864 -0.544176 0.075450 1.000000 0.000000 0.000000 161 92 45 1.000000
0.335684 -0.414076 -0.413254 0.000000 0.000000 1.000000 150 84 36 1.000000
-0.026857 0.070260 -0.396427 0.000000 0.000000 1.000000 154 89 43 1.000000
0.434864 0.601982 0.177805 1.000000 0.000000 0.000000 142 76 30 1.000000
-0.381238 -0.047448 0.367228 1.000000 0.000000 0.000000 142 77 31 1.000000
0.405417 0.697924 0.269662 1.000000 0.000000 0.000000 142 75 32 1.000000
-0.360204 0.317585 0.097801 -1.000000 0.000000 0.000000 161 95 49 1.000000
0.197845 0.803108 -0.038027 0.000000 -1.000000 0.000000 153 88 42 1.000000
-0.381238 -0.147883 0.380278 -1.000000 0.000000 0.000000 148 81 38 1.000000
-0.389651 -0.450627 -0.207140 1.000000 0.000000 0.000000 151 82 37 1.000000
-0.277348 -0.107224 0.129907 0.000000 1.000000 0.000000 158 93 51 1.000000
-0.381238 0.155603 -0.013370 -1.000000 0.000000 0.000000 157 92 46 1.000000
0.476931 0.156794 -0.327476 -1.000000 0.000000 0.000000 156 93 46 1.000000
0.212059 0.786281 0.294820 0.000000 1.000000 0.000000 141 74 31 1.000000
-0.103702 -0.753374 0.170261 0.000000 1.000000 0.000000 157 93 53 1.000000
-0.389651 -0.319461 -0.202454 -1.000000 0.000000 0.000000 151 82 35 1.000000
0.434864 -0.216056 0.188697 -1.000000 0.000000 0.000000 150 83 40 1.000000
-0.389651 0.117427 -0.240868 1.000000 0.000000 0.000000 147 81 35 1.000000
0.302155 -0.438712 0.001850 0.000000 1.000000 0.000000 148 81 38 1.000000
-0.228635 -0.574291 0.436502 0.000000 0.000000 -1.000000 153 88 42 1.000000
-0.351678 -0.121216 0.436502 0.000000 0.000000 1.000000 146 80 32 1.000000
0.034348 0.503958 -0.396427 0.000000 0.000000 1.000000 147 83 43 1.000000
-0.323970 -0.778614 0.309389 -0.000000 1.000000 0.000000 148 82 34 1.000000
0.249693 0.803108 -0.338645 0.000000 1.000000 0.000000 144 79 35 1.000000
0.084358 -0.484261 -0.396427 0.000000 0.000000 -1.000000 149 90 48 1.000000
-0.269706 0.207438 0.063090 0.000000 -1.000000 0.000000 162 93 46 1.000000
0.251806 -0.082753 0.436502 0.000000 0.000000 1.000000 160 96 56 1.000000
-0.010741 0.485081 0.433169 0.000000 1.000000 0.000000 161 97 48 1.000000
0.422244 0.702003 -0.359864 1.000000 0.000000 0.000000 154 90 50 1.000000
-0.360204 -0.566900 0.138660 -1.000000 0.000000 0.000000 148 82 36 1.000000
-0.288560 -0.233364 -0.379600 0.000000 0.000000 1.000000 149 83 35 1.000000
0.014193 0.592257 -0.068471 -1.000000 0.000000 0.000000 134 69 23 1.000000
-0.254509 0.207438 -0.238149 0.000000 -1.000000 0.000000 158 92 43 1.000000
-0.128213 -0.606876 0.411261 0.000000 0.000000 -1.000000 150 84 38 1.000000
-0.171639 -0.005973 0.411261 0.000000 0.000000 -1.000000 148 82 34 1.000000
-0.205441 -0.425251 -0.396427 0.000000 0.000000 -1.000000 151 85 39 1.000000
-0.381238 -0.207496 -0.193933 -1.000000 0.000000 0.000000 148 83 37 1.000000
0.227796 -0.107224 -0.354653 0.000000 -1.000000 0.000000 143 79 30 1.000000
-0.297159 -0.539413 0.411261 0.000000 0.000000 -1.000000 140 74 28 1.000000
0.168646 0.416180 -0.396427 0.000000 0.000000 1.000000 151 87 47 1.000000
-0.240036 0.320629 0.436502 0.000000 0.000000 -1.000000 142 77 31 1.000000
0.082761 0.027582 0.436502 0.000000 0.000000 1.000000 147 84 41 1.000000
0.473643 -0.435122 0.293474 0.000000 0.000000 -1.000000 161 97 48 1.000000
-0.213975 -0.438712 -0.207566 0.000000 -1.000000 0.000000 139 73 25 1.000000
0.083075 -0.061907 0.436502 0.000000 0.000000 1.000000 159 95 55 1.000000
-0.131080 -0.659985 0.411261 0.000000 0.000000 1.000000 154 88 40 1.000000
-0.079899 -0.438712 0.212312 0.000000 1.000000 0.000000 130 64 18 1.000000
-0.050779 0.530514 0.272845 0.000000 1.000000 0.000000 149 83 37 1.000000
-0.389651 -0.690971 0.196912 -1.000000 0.000000 0.000000 144 78 30 1.000000
0.063061 -0.625584 -0.396427 0.000000 0.000000 1.000000 158 93 51 1.000000
-0.389651 -0.395380 0.228352 1.000000 0.000000 0.000000 148 83 37 1.000000
-0.090434 -0.721431 0.436502 0.000000 0.000000 1.000000 150 85 39 1.000000
0.363350 0.398748 0.383357 1.000000 0.000000 0.000000 148 84 35 1.000000
-0.271104 -0.761788 -0.070456 0.000000 1.000000 0.000000 150 84 36 1.000000
0.359213 0.803108 -0.127282 0.000000 1.000000 0.000000 147 82 38 1.000000
0.049802 -0.177956 -0.413254 0.000000 0.000000 -1.000000 147 80 37 1.000000
0.039012 0.309263 0.436502 0.000000 0.000000 -1.000000 146 82 42 1.000000
-0.237801 -0.139009 -0.413254 0.000000 0.000000 1.000000 146 79 36 1.000000
0.392869 -0.778614 -0.220971 0.000000 1.000000 0.000000 155 91 42 1.000000
0.026245 -0.753374 -0.351845 0.000000 1.000000 0.000000 159 95 46 1.000000
-0.161860 -0.552384 -0.413254 0.000000 0.000000 -1.000000 149 83 37 1.000000
-0.142515 -0.778614 0.380468 -0.000000 1.000000 0.000000 157 92 48 1.000000
0.405417 0.346586 0.073273 1.000000 0.000000 0.000000 154 85 38 1.000000
0.366738 0.530514 0.273769 0.000000 1.000000 0.000000 153 87 41 1.000000
-0.085978 -0.157704 0.422826 0.000000 -1.000000 0.000000 157 92 46 1.000000
-0.123267 0.215852 0.176297 0.000000 1.000000 0.000000 156 95 54 1.000000
0.295142 0.453854 0.436502 0.000000 0.000000 1.000000 163 97 58 1.000000
0.476931 -0.800692 -0.371624 -1.000000 0.000000 0.000000 147 81 33 1.000000
-0.330757 -0.798000 -0.328244 1.000000 0.000000 0.000000 162 98 49 1.000000
-0.272165 -0.058400 0.436502 0.000000 0.000000 -1.000000 146 81 35 1.000000
-0.377031 0.522689 0.334425 1.000000 0.000000 0.000000 153 89 49 1.000000
0.278517 -0.404921 -0.379600 0.000000 0.000000 1.000000 151 82 35 1.000000
-0.152157 0.207438 -0.205675 0.000000 1.000000 0.000000 146 80 34 1.000000
-0.155682 0.673583 0.411261 0.000000 0.000000 -1.000000 148 82 36 1.000000
-0.009733 -0.054671 -0.396427 0.000000 0.000000 1.000000 154 89 43 1.000000
0.272232 -0.430299 0.320683 0.000000 -1.000000 0.000000 151 91 45 1.000000
-0.360315 0.616212 0.411261 0.000000 0.000000 1.000000 153 87 39 1.000000
0.207829 0.637909 -0.362773 0.000000 0.000000 -1.000000 139 82 43 1.000000
0.426450 -0.441587 0.056373 1.000000 0.000000 0.000000 154 88 42 1.000000
-0.035359 -0.306124 0.439876 0.487842 -0.872932 0.000000 119 104 71 1.000000
0.223851 0.659931 -0.396427 0.000000 0.000000 1.000000 147 83 43 1.000000
-0.094629 -0.514937 0.436502 0.000000 0.000000 1.000000 155 89 43 1.000000
-0.303740 -0.188510 -0.379600 0.000000 0.000000 1.000000 152 86 38 1.000000
0.405594 -0.107224 -0.195318 0.000000 1.000000 0.000000 152 86 37 1.000000
-0.389651 -0.750311 0.069621 1.000000 0.000000 0.000000 153 87 39 1.000000
-0.430673 0.106366 0.411261 0.000000 0.000000 1.000000 150 87 40 1.000000
0.367190 0.803108 0.088249 0.000000 -1.000000 0.000000 157 92 48 1.000000
0.065916 -0.243494 -0.379600 0.000000 0.000000 1.000000 161 92 45 1.000000
0.426450 -0.743449 0.378977 -1.000000 0.000000 0.000000 141 75 29 1.000000
-0.227370 -0.579665 -0.413254 0.000000 0.000000 -1.000000 149 83 37 1.000000
0.156104 -0.778614 0.388724 0.000000 -1.000000 0.000000 153 88 44 1.000000
-0.225643 -0.635497 0.411261 0.000000 0.000000 -1.000000 158 92 46 1.000000
-0.150234 0.476846 0.411261 0.000000 0.000000 -1.000000 156 90 44 1.000000
-0.165993 0.786281 0.006654 0.000000 -1.000000 0.000000 162 93 46 1.000000
0.177115 0.107095 0.411261 0.000000 0.000000 -1.000000 138 72 26 1.000000
-0.389651 -0.003109 -0.204555 1.000000 0.000000 0.000000 150 81 36 1.000000
-0.431718 0.673914 0.342259 1.000000 0.000000 0.000000 150 85 41 1.000000
0.345060 -0.034741 0.436502 0.000000 0.000000 1.000000 143 82 41 1.000000
0.451673 0.730157 -0.396427 0.000000 0.000000 1.000000 155 91 42 1.000000
0.434864 0.558606 0.099950 -1.000000 0.000000 0.000000 155 89 43 1.000000
0.361693 -0.115637 0.101196 0.000000 -1.000000 0.000000 151 84 41 1.000000
-0.001803 -0.523505 -0.396427 0.000000 0.000000 -1.000000 161 95 49 1.000000
-0.386457 0.485081 0.419017 0.000000 -1.000000 0.000000 153 87 39 1.000000
0.211762 0.588931 -0.379600 0.000000 0.000000 1.000000 153 87 39 1.000000
-0.360204 0.249658 0.336422 1.000000 0.000000 0.000000 146 77 30 1.000000
-0.314727 -0.334154 -0.362773 0.000000 0.000000 -1.000000 154 88 40 1.000000
-0.360204 -0.716383 -0.211930 -1.000000 0.000000 0.000000 146 80 31 1.000000
-0.389651 0.279468 -0.251029 -1.000000 0.000000 0.000000 160 91 44 1.000000
0.405417 0.442363 -0.009444 -1.000000 0.000000 0.000000 158 89 42 1.000000
-0.197677 0.786281 0.052474 0.000000 1.000000 0.000000 151 85 39 1.000000
-0.038818 -0.829095 0.330440 -0.000000 1.000000 0.000000 163 97 48 1.000000
0.434864 0.249437 0.176510 1.000000 0.000000 0.000000 142 76 30 1.000000
0.383532 -0.506020 -0.113774 0.000000 1.000000 0.000000 162 96 47 1.000000
0.375970 0.157498 0.252490 -1.000000 0.000000 0.000000 148 84 35 1.000000
-0.360204 0.271708 0.135289 1.000000 0.000000 0.000000 148 82 34 1.000000
-0.377031 0.228232 0.147831 -1.000000 0.000000 0.000000 157 90 47 1.000000
-0.203236 -0.066432 -0.362773 0.000000 0.000000 1.000000 145 80 34 1.000000
-0.381238 0.563587 0.373010 1.000000 0.000000 0.000000 149 84 40 1.000000
-0.342737 -0.629092 0.436502 0.000000 0.000000 1.000000 152 87 43 1.000000
0.375970 0.185495 -0.172392 1.000000 0.000000 0.000000 160 96 47 1.000000
0.426450 0.109203 0.337600 -1.000000 0.000000 0.000000 155 90 44 1.000000
0.187357 -0.329308 0.436502 0.000000 0.000000 1.000000 142 78 38 1.000000
0.108593 -0.457784 0.436502 0.000000 0.000000 -1.000000 148 83 39 1.000000
0.405417 -0.306077 -0.016847 1.000000 0.000000 0.000000 159 90 43 1.000000
0.476931 -0.758745 0.294390 1.000000 0.000000 0.000000 152 86 38 1.000000
0.405984 -0.107224 -0.111675 0.000000 1.000000 0.000000 160 94 45 1.000000
-0.354342 0.140131 -0.321377 0.000000 1.000000 0.000000 157 93 44 1.000000
-0.277119 -0.107224 -0.282362 0.000000 -1.000000 0.000000 158 92 44 1.000000
0.066078 0.078596 -0.379600 0.000000 0.000000 -1.000000 161 92 45 1.000000
0.239956 -0.438712 -0.146839 0.000000 1.000000 0.000000 148 81 38 1.000000
-0.318137 0.235963 0.408359 -1.000000 0.000000 0.000000 141 75 29 1.000000
-0.381238 0.372069 0.364779 -1.000000 0.000000 0.000000 156 91 45 1.000000
0.184780 0.803108 0.194619 0.000000 -1.000000 0.000000 165 105 59 1.000000
0.281848 0.274428 0.436502 0.000000 0.000000 -1.000000 151 87 47 1.000000
0.220858 0.595874 0.436502 0.000000 0.000000 1.000000 148 84 44 1.000000
0.040290 0.786281 0.151419 0.000000 1.000000 0.000000 160 91 44 1.000000
0.283638 -0.711331 0.411261 0.000000 0.000000 -1.000000 144 75 28 1.000000
0.405417 0.240891 0.062717 1.000000 0.000000 0.000000 162 93 46 1.000000
0.453721 0.755812 0.293474 0.000000 0.000000 1.000000 142 77 31 1.000000
0.205420 -0.096115 -0.413254 0.000000 0.000000 1.000000 141 74 31 1.000000
-0.172354 -0.719225 0.411261 0.000000 0.000000 1.000000 141 75 27 1.000000
-0.381238 -0.807741 -0.054783 1.000000 0.000000 0.000000 151 86 40 1.000000
0.405417 -0.559504 0.252871 1.000000 0.000000 0.000000 146 80 34 1.000000
0.187485 -0.455539 -0.365542 0.000000 1.000000 0.000000 156 91 45 1.000000
-0.101775 0.765518 0.436502 0.000000 0.000000 1.000000 150 84 38 1.000000
0.298929 -0.325199 0.436502 0.000000 0.000000 1.000000 151 87 47 1.000000
-0.180686 0.803108 -0.143070 0.000000 1.000000 0.000000 157 92 46 1.000000
-0.360204 0.695535 -0.064021 -1.000000 0.000000 0.000000 152 86 40 1.000000
0.213536 -0.753374 0.117445 0.000000 1.000000 0.000000 154 89 45 1.000000
-0.017111 0.786281 -0.005366 0.000000 -1.000000 0.000000 144 75 32 1.000000
0.387232 -0.048813 0.377608 0.000000 0.000000 -1.000000 145 79 33 1.000000
0.115550 -0.744279 -0.379600 0.000000 0.000000 -1.000000 154 88 39 1.000000
0.434864 0.744297 -0.133142 1.000000 0.000000 0.000000 156 91 45 1.000000
-0.381238 0.152944 0.265684 -1.000000 0.000000 0.000000 148 85 38 1.000000
-0.246892 -0.344810 0.411261 0.000000 0.000000 -1.000000 149 83 35 1.000000
0.417734 -0.275461 0.411261 0.000000 0.000000 -1.000000 149 83 34 1.000000
-0.352719 -0.778614 0.400413 0.000000 -1.000000 0.000000 151 85 37 1.000000
0.080044 -0.373104 0.411261 0.000000 0.000000 1.000000 143 77 31 1.000000
0.294168 -0.363831 -0.379600 0.000000 0.000000 -1.000000 144 75 28 1.000000
0.057790 -0.115637 -0.200680 0.000000 1.000000 0.000000 159 93 47 1.000000
-0.359493 -0.829095 -0.239517 0.000000 1.000000 0.000000 163 99 50 1.000000
0.200142 -0.761788 -0.171604 0.000000 1.000000 0.000000 152 85 42 1.000000
-0.295312 -0.771003 -0.379600 0.000000 0.000000 -1.000000 154 88 40 1.000000
-0.341222 -0.471758 0.436502 0.000000 0.000000 1.000000 151 85 37 1.000000
-0.360204 -0.083406 -0.220677 1.000000 0.000000 0.000000 149 83 34 1.000000
-0.251696 0.786281 -0.229199 0.000000 1.000000 0.000000 154 88 42 1.000000
-0.360204 -0.354616 0.103502 -1.000000 0.000000 0.000000 159 93 47 1.000000
-0.431718 0.309901 0.307834 -1.000000 0.000000 0.000000 149 84 38 1.000000
0.454019 -0.635791 -0.396427 0.000000 0.000000 1.000000 148 84 35 1.000000
-0.275345 -0.708465 0.436502 0.000000 0.000000 -1.000000 146 81 35 1.000000
0.397586 0.451427 0.411103 0.000000 -1.000000 0.000000 154 88 40 1.000000
-0.305510 0.547739 -0.379600 0.000000 0.000000 1.000000 159 93 45 1.000000
-0.389651 0.436585 0.145584 -1.000000 0.000000 0.000000 144 79 37 1.000000
0.186010 -0.218140 0.436502 0.000000 0.000000 -1.000000 150 91 49 1.000000
-0.389651 -0.500104 -0.092553 1.000000 0.000000 0.000000 145 76 33 1.000000
-0.389651 -0.557867 -0.233937 1.000000 0.000000 0.000000 141 75 29 1.000000
0.357939 0.011158 0.436502 0.000000 0.000000 -1.000000 148 84 44 1.000000
0.426450 -0.320834 0.236607 1.000000 0.000000 0.000000 145 80 36 1.000000
-0.239139 0.185972 0.411261 0.000000 0.000000 1.000000 151 85 37 1.000000
-0.157949 -0.077459 0.411261 0.000000 0.000000 -1.000000 144 78 30 1.000000
0.101902 0.803108 0.150178 0.000000 -1.000000 0.000000 158 93 49 1.000000
0.434864 0.073684 0.267670 -1.000000 0.000000 0.000000 158 92 46 1.000000
0.121535 -0.753374 0.058845 0.000000 -1.000000 0.000000 140 75 29 1.000000
-0.188426 0.215852 0.086042 0.000000 -1.000000 0.000000 148 83 39 1.000000
-0.217825 -0.078310 0.411261 0.000000 0.000000 -1.000000 155 89 41 1.000000
-0.406266 -0.072318 0.436502 0.000000 0.000000 1.000000 136 70 22 1.000000
0.012584 0.604962 0.436502 0.000000 0.000000 -1.000000 148 83 37 1.000000
0.029562 -0.761788 0.390140 0.000000 -1.000000 0.000000 151 85 39 1.000000
0.234657 -0.430299 0.115127 0.000000 -1.000000 0.000000 147 82 38 1.000000
-0.360204 0.018264 0.108512 1.000000 0.000000 0.000000 155 88 45 1.000000
0.422244 -0.276725 -0.085151 1.000000 0.000000 0.000000 159 94 52 1.000000
0.215204 0.707907 0.436502 0.000000 0.000000 -1.000000 143 82 41 1.000000
-0.215074 -0.107224 0.020351 0.000000 1.000000 0.000000 153 88 42 1.000000
0.036997 0.015754 0.411261 0.000000 0.000000 1.000000 158 92 46 1.000000
-0.360204 0.286319 0.402852 1.000000 0.000000 0.000000 143 73 25 1.000000
0.422244 -0.073385 -0.142046 1.000000 0.000000 0.000000 145 81 41 1.000000
0.434864 0.428603 0.256855 -1.000000 0.000000 0.000000 143 77 31 1.000000
0.405417 -0.056369 0.336105 1.000000 0.000000 0.000000 150 84 36 1.000000
-0.080987 0.803108 0.071294 0.000000 -1.000000 0.000000 159 93 45 1.000000
-0.404372 -0.275517 -0.396427 0.000000 0.000000 -1.000000 154 89 43 1.000000
-0.136524 0.786281 -0.248796 0.000000 -1.000000 0.000000 151 85 39 1.000000
-0.389651 -0.749389 -0.091471 1.000000 0.000000 0.000000 161 92 45 1.000000
0.325137 0.803108 -0.204199 0.000000 1.000000 0.000000 152 87 41 1.000000
-0.320182 -0.107224 0.026176 0.000000 -1.000000 0.000000 149 84 38 1.000000
-0.320859 -0.621784 -0.413254 0.000000 0.000000 1.000000 153 87 41 1.000000
0.042686 -0.107224 -0.151079 0.000000 1.000000 0.000000 160 94 48 1.000000
-0.304405 0.406362 -0.396427 0.000000 0.000000 1.000000 152 88 39 1.000000
-0.165742 0.732857 0.436502 0.000000 0.000000 1.000000 146 81 35 1.000000
-0.431718 -0.594223 -0.325044 -1.000000 0.000000 0.000000 154 89 45 1.000000
0.177888 -0.678176 0.436502 0.000000 0.000000 1.000000 147 83 43 1.000000
0.405417 0.630897 0.216836 1.000000 0.000000 0.000000 150 84 36 1.000000
-0.238763 0.417063 0.411261 0.000000 0.000000 1.000000 154 88 42 1.000000
0.189474 0.215852 -0.242949 0.000000 -1.000000 0.000000 162 98 49 1.000000
-0.144352 0.206355 -0.396427 0.000000 0.000000 1.000000 148 83 39 1.000000
-0.381238 0.603061 -0.057225 1.000000 0.000000 0.000000 150 87 42 1.000000
-0.134357 0.387213 -0.413254 0.000000 0.000000 -1.000000 155 82 38 1.000000
0.093858 0.645603 -0.413254 0.000000 0.000000 -1.000000 147 80 37 1.000000
0.401449 -0.180591 0.436502 0.000000 0.000000 1.000000 135 71 31 1.000000
0.371379 0.331710 -0.413254 0.000000 0.000000 -1.000000 156 87 44 1.000000
0.361502 0.530514 0.308718 0.000000 1.000000 0.000000 152 86 40 1.000000
-0.360204 0.017351 0.242052 1.000000 0.000000 0.000000 145 78 35 1.000000
-0.236407 0.444654 -0.379600 0.000000 0.000000 1.000000 134 67 24 1.000000
0.236627 -0.438712 0.275300 0.000000 1.000000 0.000000 148 82 43 1.000000
0.378265 -0.753374 -0.071114 0.000000 -1.000000 0.000000 145 80 34 1.000000
0.383339 -0.053633 -0.413254 0.000000 0.000000 -1.000000 152 87 43 1.000000
0.344021 -0.753374 -0.295518 0.000000 -1.000000 0.000000 149 84 40 1.000000
-0.381238 0.132202 -0.077761 1.000000 0.000000 0.000000 166 101 55 1.000000
0.434864 0.679174 -0.066041 1.000000 0.000000 0.000000 152 86 40 1.000000
0.425121 -0.534412 -0.396427 0.000000 0.000000 -1.000000 151 87 47 1.000000
-0.065638 0.207438 0.110163 0.000000 1.000000 0.000000 154 88 42 1.000000
0.405417 -0.430224 -0.032757 -1.000000 0.000000 0.000000 154 85 38 1.000000
-0.347243 0.786281 0.235149 0.000000 1.000000 0.000000 150 81 34 1.000000
-0.252993 0.498062 -0.413254 0.000000 0.000000 1.000000 148 82 36 1.000000
-0.173286 -0.829095 0.373380 0.000000 -1.000000 0.000000 162 96 48 1.000000
-0.140261 -0.753374 -0.237477 0.000000 1.000000 0.000000 160 95 53 1.000000
-0.396391 0.407251 -0.278639 0.000000 0.000000 -1.000000 148 83 39 1.000000
0.378289 0.530505 0.436502 0.000000 0.000000 1.000000 157 94 47 1.000000
0.308892 0.803108 0.083715 0.000000 -1.000000 0.000000 159 94 50 1.000000
0.407511 -0.132464 0.288051 0.000000 -1.000000 0.000000 147 81 32 1.000000
0.031020 0.736422 0.009855 1.000000 0.000000 0.000000 155 86 39 1.000000
-0.300150 0.786281 -0.036710 0.000000 -1.000000 0.000000 153 84 37 1.000000
0.453530 0.017542 -0.278639 0.000000 0.000000 -1.000000 160 95 49 1.000000
0.126072 0.803108 0.204661 0.000000 1.000000 0.000000 156 93 48 1.000000
0.304430 0.532718 -0.413254 0.000000 0.000000 -1.000000 141 75 29 1.000000
0.434864 -0.644589 0.079110 1.000000 0.000000 0.000000 168 99 52 1.000000
0.434864 -0.326710 0.204180 1.000000 0.000000 0.000000 157 88 41 1.000000
0.476931 -0.483137 0.352540 1.000000 0.000000 0.000000 159 94 48 1.000000
0.426836 0.322257 0.411261 0.000000 0.000000 1.000000 147 83 34 1.000000
0.035773 -0.134507 0.436502 0.000000 0.000000 1.000000 166 97 50 1.000000
-0.397302 0.739361 -0.278639 0.000000 0.000000 -1.000000 158 93 47 1.000000
-0.164621 -0.107224 -0.266779 0.000000 1.000000 0.000000 151 86 42 1.000000
-0.320122 0.786281 0.122113 0.000000 -1.000000 0.000000 158 92 46 1.000000
0.434864 -0.092523 0.125104 -1.000000 0.000000 0.000000 155 88 45 1.000000
0.254080 -0.384798 0.411261 0.000000 0.000000 1.000000 149 80 33 1.000000
0.078932 0.418991 -0.396427 0.000000 0.000000 -1.000000 166 102 62 1.000000
0.085030 -0.518033 0.436502 0.000000 0.000000 -1.000000 150 87 44 1.000000
-0.053892 -0.821609 -0.396427 0.000000 0.000000 -1.000000 158 93 47 1.000000
0.198830 -0.032506 0.411261 0.000000 0.000000 -1.000000 143 74 27 1.000000
-0.335644 -0.430299 0.290553 0.000000 1.000000 0.000000 153 89 49 1.000000
-0.045114 0.513687 -0.363888 0.000000 1.000000 0.000000 160 95 49 1.000000
-0.411457 0.188543 0.411261 0.000000 0.000000 -1.000000 146 79 36 1.000000
0.426450 -0.169534 -0.126447 -1.000000 0.000000 0.000000 158 92 43 1.000000
0.004305 -0.761788 0.188946 0.000000 -1.000000 0.000000 149 80 35 1.000000
-0.431718 0.643843 0.374003 1.000000 0.000000 0.000000 155 90 44 1.000000
0.405417 -0.281636 -0.342234 1.000000 0.000000 0.000000 138 72 26 1.000000
0.014779 0.513687 0.334197 0.000000 -1.000000 0.000000 147 78 31 1.000000
0.401674 0.140131 0.147605 0.000000 -1.000000 0.000000 159 94 48 1.000000
-0.359795 -0.778614 0.119078 0.000000 1.000000 0.000000 154 90 41 1.000000
0.110512 -0.746780 -0.413254 0.000000 0.000000 1.000000 158 92 44 1.000000
-0.389651 0.734714 0.155860 -1.000000 0.000000 0.000000 157 92 46 1.000000
-0.064665 0.063052 0.411261 0.000000 0.000000 -1.000000 147 78 31 1.000000
-0.346041 0.538927 -0.314762 0.000000 1.000000 0.000000 150 84 36 1.000000
0.397749 -0.414173 0.411261 0.000000 0.000000 1.000000 146 76 28 1.000000
0.111530 -0.107224 -0.368838 0.000000 1.000000 0.000000 156 92 42 1.000000
0.405417 0.053327 -0.154952 -1.000000 0.000000 0.000000 145 79 33 1.000000
-0.377031 0.021627 0.352339 -1.000000 0.000000 0.000000 148 84 44 1.000000
0.434864 0.297617 -0.239461 1.000000 0.000000 0.000000 150 86 37 1.000000
-0.381238 -0.034532 0.114600 -1.000000 0.000000 0.000000 159 94 50 1.000000
-0.203978 -0.614856 0.411261 0.000000 0.000000 1.000000 146 80 34 1.000000
-0.003165 0.530514 0.200182 0.000000 1.000000 0.000000 144 75 30 1.000000
0.363378 0.207438 0.408733 0.000000 -1.000000 0.000000 146 80 41 1.000000
0.434864 -0.062010 0.255761 1.000000 0.000000 0.000000 160 94 48 1.000000
-0.243120 0.741588 0.411261 0.000000 0.000000 1.000000 154 88 42 1.000000
0.099808 -0.753374 0.406520 0.000000 1.000000 0.000000 151 90 50 1.000000
0.415395 -0.411416 -0.413254 0.000000 0.000000 1.000000 151 85 37 1.000000
0.170858 -0.321811 -0.362773 0.000000 0.000000 1.000000 145 85 47 1.000000
0.204149 0.435535 0.436502 0.000000 0.000000 -1.000000 142 81 40 1.000000
0.272452 -0.587349 0.411261 0.000000 0.000000 -1.000000 146 80 34 1.000000
-0.019112 -0.463697 0.436502 0.000000 0.000000 1.000000 161 96 50 1.000000
-0.360204 -0.734913 -0.050871 -1.000000 0.000000 0.000000 162 93 46 1.000000
0.405417 -0.321222 0.385279 1.000000 0.000000 0.000000 149 83 37 1.000000
0.380641 0.513687 0.192590 0.000000 1.000000 0.000000 154 89 45 1.000000
-0.236668 0.011499 -0.413254 0.000000 0.000000 -1.000000 154 87 44 1.000000
-0.232371 -0.753374 -0.231774 0.000000 1.000000 0.000000 150 84 36 1.000000
-0.047488 -0.753374 0.152589 0.000000 -1.000000 0.000000 152 93 51 1.000000
0.161776 0.322714 -0.396427 0.000000 0.000000 1.000000 152 91 50 1.000000
-0.186696 -0.220853 -0.362773 0.000000 0.000000 1.000000 148 83 37 1.000000
0.476931 0.530930 0.302095 1.000000 0.000000 0.000000 147 83 34 1.000000
0.031020 0.605016 0.261835 -1.000000 0.000000 0.000000 152 83 36 1.000000
0.134548 0.803108 0.362158 0.000000 1.000000 0.000000 152 91 51 1.000000
0.476931 0.038215 -0.364515 1.000000 0.000000 0.000000 158 93 51 1.000000
0.126383 -0.438712 -0.279029 0.000000 1.000000 0.000000 159 94 48 1.000000
-0.330757 -0.795203 0.196353 -1.000000 0.000000 0.000000 151 87 38 1.000000
0.063477 0.604955 0.436502 0.000000 0.000000 1.000000 155 91 51 1.000000
-0.360204 0.716243 -0.121352 1.000000 0.000000 0.000000 148 82 36 1.000000
0.105896 -0.565025 -0.396427 0.000000 0.000000 1.000000 157 93 53 1.000000
-0.270675 0.786281 0.331344 0.000000 -1.000000 0.000000 141 75 29 1.000000
0.405417 -0.354337 -0.038444 -1.000000 0.000000 0.000000 166 97 50 1.000000
-0.389651 -0.279217 0.220883 1.000000 0.000000 0.000000 142 77 31 1.000000
0.434864 0.153682 0.221130 -1.000000 0.000000 0.000000 152 83 36 1.000000
0.236992 0.448050 -0.413254 0.000000 0.000000 -1.000000 155 89 43 1.000000
0.015494 0.513687 0.004386 0.000000 1.000000 0.000000 163 94 47 1.000000
-0.431718 0.711648 -0.315193 1.000000 0.000000 0.000000 148 83 37 1.000000
0.405417 -0.212548 -0.323203 -1.000000 0.000000 0.000000 143 77 31 1.000000
-0.360204 -0.552314 -0.195142 -1.000000 0.000000 0.000000 160 94 48 1.000000
-0.360204 -0.742887 -0.116844 -1.000000 0.000000 0.000000 152 86 38 1.000000
0.021597 0.786281 0.112163 0.000000 -1.000000 0.000000 154 85 40 1.000000
-0.389651 0.217230 -0.261383 1.000000 0.000000 0.000000 145 80 36 1.000000
0.412264 0.527291 0.436502 0.000000 0.000000 -1.000000 155 92 45 1.000000
-0.183192 0.170987 0.411261 0.000000 0.000000 -1.000000 149 83 35 1.000000
-0.283313 0.530514 -0.227608 0.000000 -1.000000 0.000000 153 87 38 1.000000
0.422244 0.392772 -0.306461 1.000000 0.000000 0.000000 153 87 48 1.000000
-0.389651 0.771222 0.102266 -1.000000 0.000000 0.000000 159 90 43 1.000000
-0.210016 -0.438712 0.347640 0.000000 -1.000000 0.000000 144 78 32 1.000000
-0.015129 0.044799 -0.413254 0.000000 0.000000 1.000000 161 95 49 1.000000
0.405417 -0.242080 -0.075493 -1.000000 0.000000 0.000000 153 87 41 1.000000
0.173905 -0.115637 -0.328125 0.000000 -1.000000 0.000000 141 76 30 1.000000
-0.361720 -0.186310 0.132720 0.000000 -1.000000 0.000000 154 88 42 1.000000
0.229869 0.803108 -0.071350 0.000000 -1.000000 0.000000 155 90 44 1.000000
0.476931 0.244777 0.388537 -1.000000 0.000000 0.000000 145 80 34 1.000000
0.128435 0.215852 -0.214351 0.000000 1.000000 0.000000 151 85 36 1.000000
0.348789 -0.778614 0.359057 -0.000000 1.000000 0.000000 142 77 31 1.000000
-0.354673 -0.132464 0.379240 0.000000 -1.000000 0.000000 146 80 32 1.000000
0.405417 -0.414579 0.168632 -1.000000 0.000000 0.000000 152 86 38 1.000000
0.426450 0.750599 0.015627 1.000000 0.000000 0.000000 151 86 42 1.000000
0.142845 -0.651623 -0.413254 0.000000 0.000000 -1.000000 151 85 39 1.000000
0.123765 0.416125 0.411261 0.000000 0.000000 -1.000000 135 69 23 1.000000
-0.360204 -0.657216 -0.114914 1.000000 0.000000 0.000000 150 84 36 1.000000
-0.303174 -0.753374 -0.043326 0.000000 -1.000000 0.000000 163 98 52 1.000000
-0.431718 -0.255424 0.413331 -1.000000 0.000000 0.000000 162 98 49 1.000000
-0.320771 -0.438712 0.414380 0.000000 -1.000000 0.000000 155 85 38 1.000000
0.426450 0.466652 -0.298531 -1.000000 0.000000 0.000000 144 79 37 1.000000
0.434864 -0.745710 0.036833 1.000000 0.000000 0.000000 152 83 36 1.000000
-0.431718 0.278618 0.380092 1.000000 0.000000 0.000000 149 84 38 1.000000
0.206459 -0.753374 -0.063192 0.000000 -1.000000 0.000000 151 86 40 1.000000
0.277152 -0.753374 0.264042 0.000000 1.000000 0.000000 158 98 52 1.000000
-0.347870 0.457764 0.436502 0.000000 0.000000 -1.000000 151 86 42 1.000000
0.375970 0.142749 0.194639 1.000000 0.000000 0.000000 154 89 45 1.000000
0.285875 0.575635 -0.362773 0.000000 0.000000 1.000000 153 89 49 1.000000
-0.196056 -0.753374 0.317687 0.000000 -1.000000 0.000000 156 92 52 1.000000
0.239310 -0.645737 0.411261 0.000000 0.000000 -1.000000 148 82 36 1.000000
-0.360204 -0.276802 0.057378 1.000000 0.000000 0.000000 157 88 41 1.000000
0.405417 -0.567220 -0.105849 -1.000000 0.000000 0.000000 140 74 28 1.000000
-0.035898 0.127444 -0.413254 0.000000 0.000000 -1.000000 157 91 45 1.000000
0.156908 0.207438 -0.044991 0.000000 -1.000000 0.000000 150 84 38 1.000000
0.336754 -0.484145 0.413935 0.000000 -1.000000 0.000000 148 88 40 1.000000
0.426450 -0.793591 -0.116880 1.000000 0.000000 0.000000 159 93 44 1.000000
0.019569 0.414746 -0.413254 0.000000 0.000000 1.000000 155 89 43 1.000000
-0.319851 0.538927 -0.329223 0.000000 -1.000000 0.000000 146 80 32 1.000000
-0.431585 0.803108 0.247020 0.000000 -1.000000 0.000000 149 85 45 1.000000
0.028606 0.685724 -0.379600 0.000000 0.000000 1.000000 151 82 35 1.000000
-0.051502 -0.107224 -0.176586 0.000000 1.000000 0.000000 162 96 50 1.000000
-0.284042 -0.107224 0.312701 0.000000 1.000000 0.000000 165 101 61 1.000000
-0.173106 -0.753374 -0.237343 0.000000 -1.000000 0.000000 161 96 54 1.000000
0.255224 0.074185 -0.362773 0.000000 0.000000 1.000000 139 78 37 1.000000
-0.319035 0.538927 -0.299302 0.000000 1.000000 0.000000 150 84 36 1.000000
-0.404868 -0.518763 0.293474 0.000000 0.000000 -1.000000 154 89 43 1.000000
-0.389651 -0.685700 -0.046284 1.000000 0.000000 0.000000 157 88 41 1.000000
0.110383 -0.252243 -0.413254 0.000000 0.000000 -1.000000 149 79 39 1.000000
-0.070272 -0.061543 0.411261 0.000000 0.000000 1.000000 157 88 41 1.000000
0.155647 0.230057 -0.413254 0.000000 0.000000 1.000000 158 93 51 1.000000
-0.389651 0.669015 0.085964 1.000000 0.000000 0.000000 150 84 38 1.000000
-0.200101 0.215852 0.245756 0.000000 -1.000000 0.000000 144 85 43 1.000000
0.206465 -0.438712 -0.203275 0.000000 -1.000000 0.000000 152 85 42 1.000000
0.382956 -0.750381 -0.413254 0.000000 0.000000 -1.000000 150 80 32 1.000000
0.405417 -0.716443 -0.195109 1.000000 0.000000 0.000000 151 85 37 1.000000
0.177334 -0.591717 -0.413254 0.000000 0.000000 1.000000 149 83 37 1.000000
-0.360204 0.742591 -0.361015 1.000000 0.000000 0.000000 152 86 37 1.000000
0.093538 0.538927 0.267597 0.000000 -1.000000 0.000000 155 91 51 1.000000
0.406856 0.538927 0.036266 0.000000 -1.000000 0.000000 160 94 48 1.000000
0.041670 -0.324785 -0.362773 0.000000 0.000000 1.000000 143 78 32 1.000000
0.434864 0.111459 0.112044 -1.000000 0.000000 0.000000 153 87 41 1.000000
-0.111603 0.215852 -0.046492 0.000000 1.000000 0.000000 145 79 33 1.000000
-0.223588 0.803108 -0.097568 0.000000 -1.000000 0.000000 155 89 43 1.000000
0.310313 0.530514 0.189149 0.000000 -1.000000 0.000000 140 74 28 1.000000
0.434864 -0.362503 -0.209328 -1.000000 0.000000 0.000000 153 88 42 1.000000
0.458632 -0.097598 0.411261 0.000000 0.000000 -1.000000 146 76 29 1.000000
0.190936 0.071717 -0.362773 0.000000 0.000000 -1.000000 152 91 51 1.000000
0.418190 -0.435749 0.411261 0.000000 0.000000 -1.000000 153 86 43 1.000000
0.434864 0.292721 -0.011725 1.000000 0.000000 0.000000 152 82 42 1.000000
-0.161759 0.215852 0.024336 0.000000 1.000000 0.000000 156 90 44 1.000000
0.405417 0.654045 0.088376 1.000000 0.000000 0.000000 148 79 32 1.000000
-0.333707 -0.753374 0.062073 0.000000 1.000000 0.000000 161 96 50 1.000000
-0.130036 0.610846 -0.413254 0.000000 0.000000 -1.000000 138 72 26 1.000000
0.068124 -0.438712 -0.217916 0.000000 1.000000 0.000000 143 78 32 1.000000
-0.360204 0.456757 0.265551 1.000000 0.000000 0.000000 148 82 36 1.000000
-0.053523 0.432844 -0.362773 0.000000 0.000000 1.000000 151 85 39 1.000000
-0.389651 0.544492 -0.082719 1.000000 0.000000 0.000000 144 78 32 1.000000
0.210084 0.538927 0.160715 0.000000 1.000000 0.000000 157 93 53 1.000000
0.084981 -0.650985 -0.413254 0.000000 0.000000 -1.000000 152 86 40 1.000000
0.347453 0.762803 0.411261 0.000000 0.000000 -1.000000 146 77 30 1.000000
0.405417 -0.038911 -0.214559 1.000000 0.000000 0.000000 152 83 36 1.000000
-0.032248 0.270904 -0.362773 0.000000 0.000000 1.000000 149 84 38 1.000000
-0.360204 -0.723380 0.154445 -1.000000 0.000000 0.000000 149 83 34 1.000000
-0.002681 0.530514 -0.333698 0.000000 1.000000 0.000000 154 89 43 1.000000
0.307001 0.786281 0.328104 0.000000 1.000000 0.000000 149 82 39 1.000000
-0.381238 0.558948 0.201893 1.000000 0.000000 0.000000 148 84 35 1.000000
-0.389651 0.106994 0.234733 -1.000000 0.000000 0.000000 152 87 41 1.000000
-0.202794 -0.345959 0.436502 0.000000 0.000000 1.000000 149 84 38 1.000000
-0.133524 -0.554223 0.436502 0.000000 0.000000 1.000000 160 94 48 1.000000
0.243964 0.166186 0.411261 0.000000 0.000000 1.000000 144 75 28 1.000000
-0.226875 0.530514 0.043667 0.000000 -1.000000 0.000000 148 79 32 1.000000
0.434864 -0.269726 0.104590 1.000000 0.000000 0.000000 150 84 38 1.000000
0.430831 0.786281 0.185940 0.000000 1.000000 0.000000 164 95 48 1.000000
-0.300280 0.786281 -0.378925 0.000000 -1.000000 0.000000 155 89 43 1.000000
-0.203697 -0.829095 0.323132 0.000000 -1.000000 0.000000 144 78 32 1.000000
0.476931 0.436134 0.434829 -1.000000 0.000000 0.000000 158 92 43 1.000000
-0.344584 -0.778614 -0.387198 0.000000 -1.000000 0.000000 147 84 41 1.000000
0.008817 0.540657 0.411261 0.000000 0.000000 -1.000000 152 83 36 1.000000
0.304759 0.538927 0.333080 0.000000 1.000000 0.000000 162 96 57 1.000000
0.294060 -0.700138 0.436502 0.000000 0.000000 -1.000000 157 93 53 1.000000
0.236242 0.786281 0.343305 0.000000 1.000000 0.000000 154 87 44 1.000000
-0.373407 0.140131 0.185348 0.000000 -1.000000 0.000000 152 86 37 1.000000
0.160071 0.786281 0.116463 0.000000 -1.000000 0.000000 154 84 44 1.000000
-0.381238 0.256344 0.034887 1.000000 0.000000 0.000000 153 88 44 1.000000
0.099883 -0.578171 0.411261 0.000000 0.000000 1.000000 146 80 34 1.000000
-0.381238 -0.342904 -0.218882 1.000000 0.000000 0.000000 151 86 42 1.000000
0.170016 0.268767 -0.413254 0.000000 0.000000 1.000000 155 86 39 1.000000
0.405417 -0.269712 0.306887 -1.000000 0.000000 0.000000 157 91 45 1.000000
0.123998 -0.210064 0.436502 0.000000 0.000000 -1.000000 139 78 37 1.000000
-0.389651 -0.674376 0.235280 -1.000000 0.000000 0.000000 162 96 50 1.000000
0.230509 0.538927 -0.215885 0.000000 -1.000000 0.000000 149 84 38 1.000000
-0.401198 -0.457437 -0.278639 0.000000 0.000000 1.000000 155 91 42 1.000000
-0.360204 -0.544555 0.261144 1.000000 0.000000 0.000000 149 83 37 1.000000
-0.360204 0.124302 0.040706 -1.000000 0.000000 0.000000 157 88 41 1.000000
0.419499 -0.256282 0.436502 0.000000 0.000000 -1.000000 155 91 51 1.000000
-0.360204 0.434597 -0.277464 1.000000 0.000000 0.000000 150 84 36 1.000000
-0.190368 -0.107224 -0.336010 0.000000 -1.000000 0.000000 158 94 45 1.000000
0.405417 0.061803 0.049151 1.000000 0.000000 0.000000 151 82 35 1.000000
0.434864 -0.684492 0.211806 1.000000 0.000000 0.000000 156 89 46 1.000000
-0.013558 -0.430299 0.216629 0.000000 -1.000000 0.000000 157 94 49 1.000000
-0.087187 0.671140 -0.362773 0.000000 0.000000 -1.000000 146 81 35 1.000000
0.426450 0.473802 0.283952 1.000000 0.000000 0.000000 150 86 46 1.000000
-0.360204 -0.534232 0.084075 -1.000000 0.000000 0.000000 160 91 44 1.000000
-0.389651 -0.806479 0.201524 1.000000 0.000000 0.000000 156 90 42 1.000000
0.106859 -0.115637 0.261069 0.000000 1.000000 0.000000 154 88 49 1.000000
-0.377031 -0.079293 0.325286 -1.000000 0.000000 0.000000 153 89 49 1.000000
-0.349104 -0.753374 -0.244315 0.000000 1.000000 0.000000 152 86 38 1.000000
-0.302628 0.207438 -0.035710 0.000000 1.000000 0.000000 146 77 30 1.000000
-0.021361 0.159756 -0.396427 0.000000 0.000000 -1.000000 154 89 43 1.000000
0.434864 0.056977 -0.081316 1.000000 0.000000 0.000000 152 85 42 1.000000
-0.028087 -0.761788 0.295017 0.000000 -1.000000 0.000000 140 74 28 1.000000
-0.182617 -0.685768 0.411261 0.000000 0.000000 -1.000000 148 82 34 1.000000
0.410756 -0.132464 0.185725 0.000000 1.000000 0.000000 142 78 29 1.000000
-0.016174 0.207438 0.276053 0.000000 1.000000 0.000000 154 88 42 1.000000
-0.173829 0.803108 0.280362 0.000000 1.000000 0.000000 159 95 55 1.000000
-0.327468 0.774010 0.411261 0.000000 0.000000 -1.000000 151 85 39 1.000000
0.400163 0.158064 0.436502 0.000000 0.000000 -1.000000 158 97 57 1.000000
-0.129284 0.372957 -0.362773 0.000000 0.000000 -1.000000 149 84 38 1.000000
0.223032 -0.107224 -0.177328 0.000000 -1.000000 0.000000 155 89 40 1.000000
-0.046251 -0.258908 -0.413254 0.000000 0.000000 -1.000000 151 85 39 1.000000
0.028218 0.786281 -0.127708 0.000000 1.000000 0.000000 159 92 49 1.000000
-0.069204 0.648699 -0.379600 0.000000 0.000000 1.000000 156 87 40 1.000000
0.476931 0.705661 -0.290640 -1.000000 0.000000 0.000000 136 71 25 1.000000
-0.177100 0.191347 -0.413254 0.000000 0.000000 -1.000000 148 82 43 1.000000
-0.243120 0.538927 -0.156794 0.000000 -1.000000 0.000000 145 80 34 1.000000
0.009440 0.303807 0.458040 0.000000 -0.258819 -0.965926 255 255 255 1.000000
0.349811 0.485081 0.434272 0.000000 1.000000 0.000000 147 84 39 1.000000
0.192657 -0.753374 0.151780 0.000000 1.000000 0.000000 153 88 44 1.000000
0.405417 0.022988 0.025568 1.000000 0.000000 0.000000 155 86 39 1.000000
0.222438 -0.142110 -0.413254 0.000000 0.000000 1.000000 148 81 38 1.000000
-0.234983 0.240362 -0.362773 0.000000 0.000000 1.000000 151 85 37 1.000000
-0.360204 0.589365 0.372505 -1.000000 0.000000 0.000000 148 79 32 1.000000
0.274423 0.370172 0.436502 0.000000 0.000000 -1.000000 152 86 47 1.000000
-0.389651 -0.026390 0.019064 1.000000 0.000000 0.000000 154 87 44 1.000000
-0.335311 -0.040943 0.436502 0.000000 0.000000 -1.000000 150 84 36 1.000000
-0.389651 -0.650395 0.079980 -1.000000 0.000000 0.000000 160 94 48 1.000000
-0.360204 -0.404922 0.138312 -1.000000 0.000000 0.000000 143 77 28 1.000000
0.405417 0.644676 -0.051661 1.000000 0.000000 0.000000 161 95 49 1.000000
0.140216 -0.616057 0.436502 0.000000 0.000000 1.000000 148 87 47 1.000000
0.334924 -0.132464 -0.375331 0.000000 1.000000 0.000000 152 88 39 1.000000
0.179598 0.207438 0.359313 0.000000 -1.000000 0.000000 155 90 44 1.000000
-0.360204 -0.062437 -0.004469 -1.000000 0.000000 0.000000 160 91 44 1.000000
0.236575 -0.244578 -0.396427 0.000000 0.000000 1.000000 148 84 45 1.000000
-0.360204 -0.552027 -0.330266 -1.000000 0.000000 0.000000 158 92 43 1.000000
0.434864 0.679289 -0.162460 1.000000 0.000000 0.000000 151 87 38 1.000000
-0.242373 0.700325 -0.362773 0.000000 0.000000 -1.000000 161 96 54 1.000000
-0.389651 0.639246 0.039659 1.000000 0.000000 0.000000 152 86 40 1.000000
-0.134132 -0.181691 0.411261 0.000000 0.000000 -1.000000 144 78 32 1.000000
-0.363777 -0.778614 -0.012147 0.000000 1.000000 0.000000 162 93 46 1.000000
0.318676 0.097043 -0.396427 0.000000 0.000000 -1.000000 150 85 49 1.000000
-0.186633 0.430160 -0.362773 0.000000 0.000000 -1.000000 148 83 37 1.000000
0.366150 0.532691 -0.371186 0.000000 0.000000 -1.000000 146 82 42 1.000000
-0.251942 -0.778614 0.328791 0.000000 -1.000000 0.000000 148 82 34 1.000000
0.419205 -0.391316 -0.379600 0.000000 0.000000 -1.000000 153 83 35 1.000000
-0.360204 0.456193 -0.058541 1.000000 0.000000 0.000000 154 88 42 1.000000
0.014193 0.570466 0.373588 -1.000000 0.000000 0.000000 152 88 48 1.000000
0.460749 -0.712823 -0.278639 0.000000 0.000000 -1.000000 142 75 32 1.000000
-0.183863 0.786281 0.343174 0.000000 1.000000 0.000000 152 86 40 1.000000
0.067553 0.105575 0.436502 0.000000 0.000000 1.000000 158 93 51 1.000000
-0.381238 -0.800740 0.284840 1.000000 0.000000 0.000000 139 72 29 1.000000
-0.056635 0.530514 -0.150739 0.000000 1.000000 0.000000 158 92 46 1.000000
-0.360204 0.562620 -0.109836 -1.000000 0.000000 0.000000 141 75 27 1.000000
-0.044242 0.070832 0.436502 0.000000 0.000000 1.000000 158 92 46 1.000000
0.014193 0.619526 -0.215471 -1.000000 0.000000 0.000000 155 90 44 1.000000
0.032090 -0.104357 -0.362773 0.000000 0.000000 1.000000 164 99 53 1.000000
0.212458 -0.630248 0.411261 0.000000 0.000000 1.000000 145 79 33 1.000000
-0.400038 -0.562222 -0.396427 0.000000 0.000000 -1.000000 143 79 30 1.000000
0.345228 -0.781011 -0.396427 0.000000 0.000000 1.000000 146 86 40 1.000000
-0.181373 0.313297 -0.362773 0.000000 0.000000 1.000000 160 95 49 1.000000
-0.363793 -0.455539 0.155661 0.000000 1.000000 0.000000 154 90 41 1.000000
0.288356 0.207438 0.312201 0.000000 -1.000000 0.000000 152 85 42 1.000000
0.434864 -0.492271 -0.023211 -1.000000 0.000000 0.000000 149 83 37 1.000000
-0.153914 -0.430299 -0.219246 0.000000 -1.000000 0.000000 149 84 38 1.000000
-0.266599 0.207438 0.229583 0.000000 1.000000 0.000000 156 90 44 1.000000
-0.236291 -0.089601 -0.379600 0.000000 0.000000 1.000000 149 83 34 1.000000
-0.381238 0.061322 0.365736 -1.000000 0.000000 0.000000 156 91 45 1.000000
0.197965 -0.107224 0.169485 0.000000 -1.000000 0.000000 152 87 43 1.000000
-0.360204 -0.510322 -0.138184 -1.000000 0.000000 0.000000 139 73 27 1.000000
-0.412813 0.786281 -0.319605 0.000000 -1.000000 0.000000 144 78 30 1.000000
-0.354134 0.088882 0.377608 0.000000 0.000000 1.000000 157 91 42 1.000000
0.132977 -0.507414 0.436502 0.000000 0.000000 -1.000000 147 86 46 1.000000
-0.251612 -0.761788 -0.034307 0.000000 1.000000 0.000000 154 85 38 1.000000
0.235543 0.803108 -0.174532 0.000000 1.000000 0.000000 149 84 38 1.000000
0.130883 0.215852 -0.347169 0.000000 -1.000000 0.000000 150 86 37 1.000000
-0.349616 0.089378 0.411261 0.000000 0.000000 -1.000000 142 78 29 1.000000
0.229557 0.122297 -0.413254 0.000000 0.000000 1.000000 155 90 46 1.000000
0.171332 -0.115637 0.213085 0.000000 1.000000 0.000000 159 90 47 1.000000
-0.039174 -0.262919 -0.362773 0.000000 0.000000 -1.000000 145 79 33 1.000000
-0.216521 0.215852 0.141359 0.000000 -1.000000 0.000000 147 86 46 1.000000
-0.208679 -0.389301 -0.379600 0.000000 0.000000 -1.000000 147 81 33 1.000000
0.434864 -0.662380 0.246698 -1.000000 0.000000 0.000000 148 82 36 1.000000
-0.337539 0.786281 0.274855 0.000000 -1.000000 0.000000 150 81 34 1.000000
0.434864 -0.035126 -0.249233 1.000000 0.000000 0.000000 151 86 40 1.000000
-0.389651 -0.653576 -0.218697 1.000000 0.000000 0.000000 150 84 38 1.000000
0.168794 0.215852 0.184458 0.000000 1.000000 0.000000 153 88 44 1.000000
0.476931 -0.223992 0.386210 -1.000000 0.000000 0.000000 147 83 34 1.000000
0.239719 0.260374 0.411261 0.000000 0.000000 1.000000 144 75 28 1.000000
-0.092792 -0.753374 0.091547 0.000000 1.000000 0.000000 145 80 36 1.000000
0.014193 0.568466 -0.295373 1.000000 0.000000 0.000000 150 84 36 1.000000
0.057149 0.439527 0.436502 0.000000 0.000000 1.000000 164 99 57 1.000000
0.001339 0.730326 -0.362773 0.000000 0.000000 -1.000000 148 82 36 1.000000
-0.297457 -0.761788 -0.342754 0.000000 1.000000 0.000000 142 76 30 1.000000
-0.177122 0.457000 0.411261 0.000000 0.000000 1.000000 145 79 33 1.000000
-0.218962 -0.115637 0.108677 0.000000 -1.000000 0.000000 155 88 45 1.000000
0.405417 -0.404157 -0.315428 1.000000 0.000000 0.000000 143 74 27 1.000000
-0.202400 -0.753374 0.077522 0.000000 -1.000000 0.000000 147 81 35 1.000000
0.396102 -0.778614 0.287359 0.000000 1.000000 0.000000 152 88 39 1.000000
-0.156038 0.803108 0.136907 0.000000 1.000000 0.000000 149 88 47 1.000000
-0.043173 0.412065 -0.396427 0.000000 0.000000 1.000000 152 89 44 1.000000
0.014193 0.699263 0.064915 -1.000000 0.000000 0.000000 156 90 44 1.000000
0.396880 -0.259934 -0.379600 0.000000 0.000000 1.000000 137 68 21 1.000000
-0.087051 0.198627 -0.396427 0.000000 0.000000 -1.000000 150 85 39 1.000000
-0.376497 -0.182944 -0.060997 0.000000 1.000000 0.000000 156 91 45 1.000000
0.405417 0.372743 0.005567 1.000000 0.000000 0.000000 153 84 37 1.000000
0.405417 0.098787 0.060800 -1.000000 0.000000 0.000000 160 91 44 1.000000
-0.052848 -0.430299 -0.080518 0.000000 1.000000 0.000000 157 91 45 1.000000
0.476931 0.801296 0.332229 -1.000000 0.000000 0.000000 146 77 30 1.000000
-0.006471 -0.430299 -0.103703 0.000000 -1.000000 0.000000 153 87 41 1.000000
-0.387433 0.803108 0.274802 0.000000 1.000000 0.000000 152 88 48 1.000000
0.192494 -0.614243 -0.362773 0.000000 0.000000 1.000000 142 81 41 1.000000
0.232546 -0.121075 0.436502 0.000000 0.000000 1.000000 152 88 48 1.000000
-0.381238 -0.475088 -0.339455 -1.000000 0.000000 0.000000 144 79 33 1.000000
-0.381238 -0.498219 -0.039156 1.000000 0.000000 0.000000 159 94 48 1.000000
0.426450 0.687239 0.363389 -1.000000 0.000000 0.000000 151 86 42 1.000000
-0.305312 0.207438 0.328331 0.000000 -1.000000 0.000000 146 77 30 1.000000
-0.034479 -0.045177 0.436502 0.000000 0.000000 1.000000 155 90 44 1.000000
0.029629 0.215852 0.146105 0.000000 1.000000 0.000000 143 84 42 1.000000
-0.131280 0.207438 0.117059 0.000000 1.000000 0.000000 155 89 43 1.000000
-0.410766 -0.549642 -0.278639 0.000000 0.000000 1.000000 154 90 41 1.000000
0.270934 -0.430299 -0.208752 0.000000 -1.000000 0.000000 155 90 44 1.000000
0.395612 0.059214 -0.413254 0.000000 0.000000 1.000000 155 91 42 1.000000
-0.010775 0.051583 0.436502 0.000000 0.000000 -1.000000 151 85 39 1.000000
0.014193 0.583646 0.326225 -1.000000 0.000000 0.000000 154 90 50 1.000000
0.375970 0.490660 -0.324650 -1.000000 0.000000 0.000000 148 82 34 1.000000
0.054040 -0.430299 -0.073524 0.000000 -1.000000 0.000000 139 73 27 1.000000
-0.072709 0.047171 -0.396427 0.000000 0.000000 1.000000 167 102 56 1.000000
0.068259 -0.753374 0.185128 0.000000 1.000000 0.000000 148 89 47 1.000000
-0.381238 0.334634 -0.070074 1.000000 0.000000 0.000000 153 88 44 1.000000
0.426450 -0.649941 -0.246232 -1.000000 0.000000 0.000000 158 94 45 1.000000
0.175244 0.544549 -0.379600 0.000000 0.000000 -1.000000 155 89 40 1.000000
-0.265676 0.803108 0.126206 0.000000 -1.000000 0.000000 149 85 45 1.000000
0.040744 0.372609 0.436502 0.000000 0.000000 1.000000 156 91 47 1.000000
0.150908 -0.265678 0.411261 0.000000 0.000000 1.000000 148 82 36 1.000000
0.426450 -0.378740 -0.337453 1.000000 0.000000 0.000000 152 87 41 1.000000
0.217471 -0.726047 0.411261 0.000000 0.000000 -1.000000 161 92 45 1.000000
-0.359710 0.803108 0.342955 0.000000 1.000000 0.000000 135 76 30 1.000000
0.014193 0.675728 -0.076286 -1.000000 0.000000 0.000000 144 79 33 1.000000
0.434864 -0.115996 -0.260418 1.000000 0.000000 0.000000 155 91 42 1.000000
-0.381238 -0.140223 -0.175100 1.000000 0.000000 0.000000 158 93 47 1.000000
0.426450 0.774352 -0.310382 -1.000000 0.000000 0.000000 154 89 43 1.000000
-0.367130 -0.409986 -0.396427 0.000000 0.000000 1.000000 152 87 41 1.000000
-0.019203 -0.753374 -0.142830 0.000000 -1.000000 0.000000 161 95 49 1.000000
-0.033119 -0.455539 -0.375403 0.000000 -1.000000 0.000000 151 86 40 1.000000
-0.166373 0.070237 -0.379600 0.000000 0.000000 -1.000000 156 90 44 1.000000
-0.360204 -0.312763 0.253044 1.000000 0.000000 0.000000 154 85 38 1.000000
0.476931 0.047292 -0.330501 -1.000000 0.000000 0.000000 148 85 42 1.000000
-0.060463 0.295123 0.411261 0.000000 0.000000 1.000000 156 87 40 1.000000
0.228612 0.071961 0.411261 0.000000 0.000000 1.000000 141 75 29 1.000000
0.140886 0.207438 -0.239784 0.000000 -1.000000 0.000000 149 84 38 1.000000
0.097951 0.215852 -0.068294 0.000000 -1.000000 0.000000 143 78 32 1.000000
-0.165438 0.761333 -0.379600 0.000000 0.000000 -1.000000 149 83 37 1.000000
-0.157985 -0.643091 -0.413254 0.000000 0.000000 -1.000000 148 82 36 1.000000
0.220924 -0.512676 -0.396427 0.000000 0.000000 -1.000000 163 102 61 1.000000
-0.431718 0.041837 -0.293535 -1.000000 0.000000 0.000000 153 87 41 1.000000
0.202211 0.625445 0.436502 0.000000 0.000000 1.000000 146 82 42 1.000000
0.024713 -0.346957 0.411261 0.000000 0.000000 -1.000000 158 89 42 1.000000
-0.389651 -0.518044 0.168090 -1.000000 0.000000 0.000000 145 80 34 1.000000
-0.103568 -0.509385 -0.363258 0.000000 1.000000 0.000000 148 84 35 1.000000
0.068323 0.538927 0.361172 0.000000 -1.000000 0.000000 150 86 46 1.000000
-0.379808 0.639719 -0.396427 0.000000 0.000000 1.000000 149 84 40 1.000000
0.388000 0.140131 0.010540 0.000000 1.000000 0.000000 146 81 35 1.000000
0.313576 -0.709868 -0.396427 0.000000 0.000000 1.000000 150 86 46 1.000000
-0.431718 0.283565 0.320851 1.000000 0.000000 0.000000 153 88 42 1.000000
0.126320 0.530514 -0.103957 0.000000 1.000000 0.000000 142 76 28 1.000000
0.081378 -0.438712 0.062246 0.000000 1.000000 0.000000 144 74 34 1.000000
0.267829 -0.130817 -0.413254 0.000000 0.000000 -1.000000 147 80 37 1.000000
0.272570 -0.590764 -0.396427 0.000000 0.000000 1.000000 167 101 62 1.000000
0.180676 0.215852 0.255010 0.000000 -1.000000 0.000000 160 97 54 1.000000
0.434864 -0.211168 -0.092018 -1.000000 0.000000 0.000000 153 86 43 1.000000
0.042106 0.789630 0.436502 0.000000 0.000000 1.000000 152 87 43 1.000000
-0.298375 0.375577 0.436502 0.000000 0.000000 1.000000 150 85 43 1.000000
-0.389651 -0.649964 0.149679 1.000000 0.000000 0.000000 142 75 32 1.000000
0.475546 0.383366 0.411261 0.000000 0.000000 -1.000000 147 83 34 1.000000
-0.170263 -0.159800 -0.396427 0.000000 0.000000 1.000000 162 97 51 1.000000
0.328049 -0.354454 -0.362773 0.000000 0.000000 -1.000000 150 86 46 1.000000
0.093451 0.127388 0.436502 0.000000 0.000000 1.000000 150 87 44 1.000000
0.405417 -0.522624 -0.050322 1.000000 0.000000 0.000000 152 86 40 1.000000
0.339379 -0.316398 -0.396427 0.000000 0.000000 -1.000000 157 96 56 1.000000
