ply
format ascii 1.0
element vertex 1276
property float x
property float y
property float z
property uchar red
property uchar green
property uchar blue
end_header
0.514352 -0.306352 -0.122974 76 153 0
-0.310303 0.336292 -0.435014 76 153 0
-0.324486 0.510238 0.382835 76 0 153
0.237008 -0.511675 0.440345 76 0 153
0.208618 0.010735 -0.491600 76 153 0
-0.031227 -0.456960 0.521274 76 153 0
0.089510 0.845102 -0.097861 0 255 0
-0.038381 -0.856392 0.352222 153 0 76
-0.453845 -0.744283 0.137454 153 0 76
0.424606 0.506594 -0.319874 76 153 0
0.407219 0.764538 -0.342521 0 255 0
0.340957 0.005035 0.396830 76 153 0
-0.083099 0.753912 -0.274148 0 255 0
0.327372 0.836264 -0.404951 0 255 0
0.470548 -0.236800 -0.189097 76 0 153
0.288308 -0.856392 0.091233 153 0 76
-0.423425 -0.855959 0.301328 153 0 76
0.084061 -0.855010 -0.523441 153 0 76
0.359289 0.421331 0.349056 76 0 153
0.101758 -0.359534 0.512294 76 153 0
-0.158230 -0.616405 -0.487048 76 0 153
0.213872 -0.669450 0.442838 204 51 127
-0.428901 -0.669450 0.032716 204 51 127
-0.025317 -0.856392 0.064077 153 0 76
0.014320 -0.669450 -0.243180 204 51 127
-0.073264 -0.856392 0.067229 153 0 76
0.428746 0.845102 -0.211677 0 255 0
-0.501180 0.311392 0.068990 76 0 153
0.504649 0.299406 0.147988 76 153 0
-0.022107 0.654779 -0.511632 76 0 153
0.432395 0.328890 0.254302 76 0 153
-0.157386 0.753912 0.101903 0 255 0
0.429282 0.624931 0.259468 76 0 153
-0.027418 0.319693 0.498690 76 0 153
-0.496877 -0.451834 -0.107381 76 0 153
-0.449734 0.081960 -0.286081 76 153 0
-0.419416 -0.273390 0.316747 76 153 0
0.058151 -0.420812 -0.508738 76 0 153
0.302833 0.303354 0.426396 76 153 0
-0.349047 -0.679852 0.391269 204 51 127
-0.509586 0.452509 0.138125 76 153 0
0.477218 -0.680872 -0.202823 204 51 127
-0.524532 0.024413 0.067004 76 153 0
-0.523611 0.083221 -0.086668 76 153 0
0.477833 -0.802942 0.218080 153 0 76
-0.360170 -0.837491 -0.018326 153 0 76
-0.050335 -0.106468 -0.532782 76 153 0
0.516622 -0.606355 0.100294 76 153 0
-0.083483 0.133924 0.492706 76 0 153
-0.273457 0.682136 0.420107 76 0 153
0.112185 0.724731 0.497934 0 255 0
-0.408394 0.422258 0.330871 76 153 0
-0.464340 -0.627910 -0.209190 76 0 153
0.379823 0.305868 -0.373019 76 153 0
-0.043902 0.753912 -0.317010 0 255 0
0.334276 -0.255492 0.372114 76 0 153
0.450132 0.753912 0.110613 0 255 0
-0.134191 -0.669450 0.234792 204 51 127
-0.179321 0.789927 -0.504276 0 255 0
-0.197996 -0.134800 0.484405 76 153 0
0.077417 -0.719818 0.516597 153 0 76
0.468588 0.678638 -0.249227 76 153 0
-0.500532 -0.344866 0.166017 76 153 0
0.283030 0.681134 0.412260 76 0 153
0.521380 -0.283274 -0.086604 76 153 0
-0.043936 -0.669450 -0.427181 204 51 127
0.504691 -0.207531 0.147955 76 153 0
-0.150549 0.369993 -0.489715 76 0 153
0.308774 -0.710480 0.410840 204 51 127
0.350787 0.845102 -0.224262 0 255 0
0.118193 -0.669450 0.447486 204 51 127
0.435822 -0.599982 0.291141 76 153 0
-0.529279 -0.544619 -0.021989 76 153 0
-0.525008 0.810327 0.065748 0 255 0
0.518722 0.312113 -0.103972 76 153 0
0.151159 0.785596 -0.512861 0 255 0
-0.201592 -0.669450 -0.059332 204 51 127
-0.063139 -0.673842 0.518439 76 153 0
0.436581 -0.313873 -0.302979 76 153 0
0.295841 -0.144694 0.403021 76 0 153
-0.036566 -0.856392 -0.350193 153 0 76
0.032965 -0.325174 -0.510915 76 0 153
-0.482830 0.331347 0.147902 76 0 153
0.141080 0.753912 0.014229 0 255 0
-0.141923 -0.669450 0.328486 204 51 127
0.388452 0.730346 -0.337204 0 255 0
-0.096505 0.845102 0.193697 0 255 0
0.176079 -0.856392 -0.160217 153 0 76
0.410263 -0.069925 0.287769 76 0 153
0.207366 -0.523328 -0.467001 76 0 153
-0.460930 0.475707 -0.216686 76 0 153
0.270346 0.845102 0.015172 0 255 0
0.373589 0.845102 -0.172775 0 255 0
0.360797 0.681193 -0.360016 76 0 153
-0.489442 -0.623805 -0.137312 76 0 153
0.458968 0.297805 -0.266730 76 153 0
-0.516732 0.258168 -0.122962 76 153 0
0.524754 0.249344 -0.062448 76 153 0
-0.524815 0.550358 -0.078848 76 153 0
-0.061775 -0.525020 -0.508541 76 0 153
-0.368287 0.845102 0.160225 0 255 0
-0.057561 0.845102 0.431627 0 255 0
0.165627 -0.197168 -0.507865 76 153 0
-0.360170 -0.753702 0.092981 153 0 76
-0.392524 -0.085762 0.314643 76 0 153
0.467404 -0.669450 0.003107 204 51 127
-0.461534 -0.073156 -0.265736 76 153 0
-0.449069 -0.752906 -0.185243 153 0 76
0.406116 -0.540861 0.293367 76 0 153
0.299045 0.627404 0.428924 76 153 0
0.147927 -0.856392 0.011672 153 0 76
-0.007065 0.753912 0.144558 0 255 0
-0.170369 -0.828660 0.494481 153 0 76
-0.491166 -0.297952 -0.130370 76 0 153
-0.271629 0.788948 0.448104 0 255 0
0.473124 0.402003 0.227832 76 153 0
-0.206140 -0.669450 -0.140259 204 51 127
-0.506256 -0.582424 -0.027477 76 0 153
-0.291425 0.652861 0.435465 76 153 0
0.488659 -0.368917 -0.132547 76 0 153
-0.516601 0.480245 -0.123914 76 153 0
0.487736 -0.420531 0.123071 76 0 153
0.102456 0.152944 -0.501614 76 0 153
-0.051545 -0.416871 0.497333 76 0 153
0.033217 0.753912 0.212967 0 255 0
0.168532 0.753912 -0.021978 0 255 0
0.061266 -0.749825 0.518760 153 0 76
-0.415209 -0.319545 -0.335051 76 153 0
0.490769 0.330800 0.111509 76 0 153
0.026091 0.753912 -0.055945 0 255 0
-0.482386 -0.111056 0.211842 76 153 0
0.144407 0.845102 -0.106927 0 255 0
0.035434 -0.669450 -0.287506 204 51 127
0.170157 0.415486 -0.506608 76 153 0
0.056672 0.631859 0.519158 76 153 0
-0.478628 -0.668049 -0.232233 76 153 0
-0.460924 0.241354 0.204173 76 0 153
-0.040273 0.753912 0.134330 0 255 0
-0.436981 -0.698329 0.271790 204 51 127
0.035370 -0.669450 -0.155069 204 51 127
0.464933 -0.739086 -0.256304 153 0 76
0.459825 -0.527302 0.252077 76 153 0
-0.368897 -0.669450 0.067471 204 51 127
-0.402428 -0.330648 0.337473 76 153 0
0.217835 0.251062 -0.462183 76 0 153
-0.217796 0.600987 -0.463270 76 0 153
0.417180 0.395072 0.317162 76 153 0
0.497513 -0.365833 -0.091264 76 0 153
-0.461967 0.003404 0.201739 76 0 153
-0.312860 -0.683198 -0.418785 204 51 127
0.100897 -0.235085 0.512531 76 153 0
-0.505633 0.297980 0.028378 76 0 153
0.058321 -0.027541 0.519071 76 153 0
-0.397691 -0.730529 -0.356183 153 0 76
0.017539 0.584370 -0.534560 76 153 0
0.282259 0.753912 0.331228 0 255 0
0.457000 0.331364 0.207990 76 0 153
-0.021770 0.845102 -0.309289 0 255 0
-0.296081 0.148377 0.404323 76 0 153
-0.360170 -0.845342 0.023535 153 0 76
-0.444871 -0.328504 0.236814 76 0 153
-0.043037 -0.856392 0.126553 153 0 76
-0.402759 -0.672357 -0.349599 76 153 0
0.020110 -0.686026 0.510342 204 51 127
0.400025 -0.514868 -0.314389 76 0 153
0.373065 0.717599 0.333728 76 0 153
0.104835 0.845102 -0.255923 0 255 0
-0.318848 0.753912 0.048639 0 255 0
0.328625 -0.041017 -0.419847 76 153 0
-0.371222 0.016320 0.371255 76 153 0
-0.489078 -0.337658 0.196918 76 153 0
-0.268872 -0.840176 -0.462159 153 0 76
-0.458632 -0.129304 -0.221269 76 0 153
0.225562 -0.856392 -0.122130 153 0 76
0.491356 0.795719 0.011213 127 0 127
0.365700 -0.307986 0.374440 76 153 0
-0.297043 0.360231 0.403649 76 0 153
0.472634 -0.059619 0.170892 76 0 153
-0.137555 -0.617431 0.480684 76 0 153
-0.308348 0.845102 0.297307 0 255 0
-0.458481 -0.481770 0.258022 76 153 0
-0.090915 0.645502 -0.527381 76 153 0
0.503301 0.270249 0.033616 76 0 153
0.466823 0.526566 0.239892 76 153 0
0.500869 -0.006277 0.056185 76 0 153
-0.111371 0.090532 -0.500030 76 0 153
0.470777 0.534488 0.176643 76 0 153
-0.436821 0.006094 -0.305751 76 153 0
-0.361065 -0.771441 -0.393587 153 0 76
0.171353 0.845102 -0.155757 0 255 0
-0.497847 0.468780 0.174174 76 153 0
0.286459 0.736709 -0.422790 0 255 0
0.525739 0.515241 0.034459 76 153 0
-0.010922 0.517722 -0.534974 76 153 0
0.210009 -0.669450 -0.239570 204 51 127
-0.255315 -0.084705 -0.443469 76 0 153
-0.468547 0.426085 -0.199996 76 0 153
0.480096 -0.764125 0.213036 153 0 76
0.108994 -0.669450 -0.163471 204 51 127
-0.337325 0.845102 0.010190 0 255 0
0.473725 -0.297637 -0.238758 76 153 0
0.465955 -0.639387 0.241466 76 153 0
0.487051 -0.319445 -0.138987 76 0 153
-0.491568 0.617399 0.116936 76 0 153
0.292214 -0.669450 -0.130383 204 51 127
-0.065046 -0.032007 0.495365 76 0 153
-0.205697 0.054426 0.456122 76 0 153
-0.065559 -0.669450 0.077539 204 51 127
0.344807 -0.040926 0.362551 76 0 153
0.360705 -0.054154 -0.391766 76 153 0
-0.460322 -0.232065 0.205201 76 0 153
-0.522757 -0.222174 0.079275 76 153 0
-0.491413 0.170030 0.191497 76 153 0
-0.444300 -0.370545 0.282168 76 153 0
-0.410269 0.081656 -0.341256 76 153 0
0.265471 -0.468574 -0.436181 76 0 153
-0.416702 -0.766620 0.186813 153 0 76
0.420356 -0.761669 -0.325883 153 0 76
-0.340135 0.504036 -0.412022 76 153 0
0.467771 -0.669450 0.143976 204 51 127
-0.213675 0.107778 0.452383 76 0 153
0.461800 0.134898 0.249309 76 153 0
0.262391 -0.856392 -0.062153 153 0 76
-0.019733 0.399277 -0.511739 76 0 153
0.525021 0.361338 -0.059192 76 153 0
-0.513387 0.211744 -0.136637 76 153 0
-0.490287 -0.285712 0.194140 76 153 0
-0.416722 -0.584403 0.320191 76 153 0
0.235193 0.577741 -0.453941 76 0 153
0.473610 0.384266 -0.181046 76 0 153
-0.157825 0.487483 -0.511372 76 153 0
0.490306 -0.856392 -0.050418 153 0 76
-0.225404 -0.856392 0.358949 153 0 76
0.468577 -0.447109 -0.194627 76 0 153
0.120347 0.012509 -0.520644 76 153 0
0.498460 0.613621 -0.086238 76 0 153
-0.090131 -0.856392 0.254430 153 0 76
0.297034 -0.240319 0.430317 76 153 0
-0.347032 -0.368858 0.393118 76 153 0
-0.095928 -0.669450 -0.172261 204 51 127
-0.279912 -0.316961 0.442664 76 153 0
-0.275959 0.113460 -0.457932 76 153 0
-0.353616 0.013204 -0.369126 76 0 153
-0.323085 -0.086351 -0.396851 76 0 153
0.483744 0.673204 -0.151317 76 0 153
-0.284669 0.309955 0.440056 76 153 0
-0.231121 -0.576209 0.444092 76 0 153
-0.446516 0.451437 0.278515 76 153 0
-0.511480 -0.531703 -0.143900 76 153 0
0.338515 -0.443128 0.398861 76 153 0
-0.446560 0.241976 -0.246508 76 0 153
0.513068 0.810001 0.117791 0 255 0
-0.524484 0.473860 0.068541 76 153 0
0.289398 0.845102 -0.420334 0 255 0
-0.124339 0.175915 -0.520395 76 153 0
-0.335784 -0.754942 0.402945 153 0 76
0.430215 0.449528 -0.270641 76 0 153
-0.390917 -0.823164 0.068847 153 0 76
0.361733 -0.112676 -0.390803 76 153 0
-0.497673 0.422321 0.174666 76 153 0
-0.325660 0.753912 -0.256038 0 255 0
0.416888 0.487090 -0.291441 76 0 153
0.194396 -0.644944 0.485112 76 153 0
0.441024 -0.026658 -0.252396 76 0 153
0.141162 0.845102 -0.336549 0 255 0
-0.068491 -0.318792 0.517827 76 153 0
-0.435055 -0.197406 0.295380 76 153 0
-0.434588 -0.095780 -0.308737 76 153 0
0.157484 0.488216 -0.486621 76 0 153
-0.017714 0.753912 0.249617 0 255 0
-0.446621 -0.789178 -0.165591 153 0 76
-0.007081 0.179374 0.522523 76 153 0
-0.052426 -0.314930 -0.532694 76 153 0
-0.511351 0.394143 -0.144413 76 153 0
0.507084 0.152168 0.139729 76 153 0
-0.082118 0.689978 0.516304 76 153 0
-0.454084 -0.608028 0.265437 76 153 0
-0.372860 0.753912 0.213789 0 255 0
0.437299 0.845102 -0.135246 0 255 0
0.058155 -0.479478 -0.531585 76 153 0
0.063143 0.753912 0.466985 0 255 0
-0.070844 0.542920 -0.530460 76 153 0
0.512854 -0.786507 -0.130885 153 0 76
-0.444958 0.255520 0.236552 76 0 153
-0.022095 -0.669450 0.293091 204 51 127
-0.302990 -0.016872 0.427626 76 153 0
-0.198939 -0.669450 -0.012339 204 51 127
-0.337721 0.224555 0.370978 76 0 153
-0.267518 0.845102 -0.390650 0 255 0
-0.327140 -0.669450 0.179601 204 51 127
0.239503 0.718805 0.438670 76 0 153
-0.012400 0.845102 -0.090611 0 255 0
0.006294 0.845102 0.140734 0 255 0
-0.437190 -0.823164 0.125850 153 0 76
0.152047 0.341626 0.499747 76 153 0
0.520463 0.820353 -0.094468 0 255 0
-0.294262 -0.462061 0.405634 76 0 153
0.343239 0.185254 0.363993 76 0 153
0.259694 0.253799 -0.439699 76 0 153
-0.521043 -0.058585 0.089535 76 153 0
-0.413349 -0.680241 -0.318357 204 51 127
0.308557 -0.498212 0.393584 76 0 153
0.524637 0.537321 -0.063053 76 153 0
0.226849 0.753912 0.246389 0 255 0
0.521107 0.180157 -0.088983 76 153 0
-0.119863 0.845102 -0.254233 0 255 0
-0.326804 0.136621 0.410085 76 153 0
0.520549 0.814630 0.081168 0 255 0
0.388192 0.072742 -0.329783 76 0 153
0.477429 -0.060521 -0.169790 76 0 153
-0.371111 -0.608485 0.371254 76 153 0
0.039461 0.078642 -0.510609 76 0 153
0.375215 -0.178180 -0.344068 76 0 153
0.520261 -0.417465 -0.094382 76 153 0
-0.100956 -0.856392 -0.368617 153 0 76
-0.189491 -0.851723 -0.498896 153 0 76
-0.042808 -0.054748 0.520769 76 153 0
0.491397 -0.231186 -0.121574 76 0 153
0.336662 0.845102 0.023930 0 255 0
0.520666 0.340522 0.079232 76 153 0
-0.007857 -0.848107 -0.534782 153 0 76
0.138481 0.753912 0.101871 0 255 0
0.126547 0.753912 -0.261577 0 255 0
-0.398963 0.244949 0.306027 76 0 153
0.381767 -0.669450 -0.259751 204 51 127
0.065196 0.845102 -0.482641 0 255 0
-0.310934 0.280834 -0.434544 76 153 0
0.470601 0.290125 0.232835 76 153 0
-0.477612 -0.159731 0.162483 76 0 153
0.190764 -0.346503 0.486488 76 153 0
-0.505214 0.732183 -0.050469 0 255 0
0.225702 -0.058980 0.471135 76 153 0
-0.419962 0.023071 0.277674 76 0 153
0.076472 -0.342870 -0.506067 76 0 153
-0.237666 -0.569676 -0.479090 76 153 0
0.244029 -0.426145 0.436327 76 0 153
-0.487807 -0.744283 0.068671 153 0 76
0.502075 -0.003168 -0.168640 76 153 0
-0.447131 -0.194775 -0.245606 76 0 153
0.340418 -0.324572 0.397222 76 153 0
0.318035 -0.582229 0.414777 76 153 0
-0.458891 -0.823164 -0.003317 153 0 76
0.364863 -0.669450 -0.142297 204 51 127
0.303514 0.553263 0.425897 76 153 0
0.386023 0.753912 -0.248518 0 255 0
-0.224168 0.753912 -0.236404 0 255 0
0.029376 0.318886 0.521572 76 153 0
-0.331178 0.845102 0.357014 0 255 0
0.004576 0.845102 -0.395914 0 255 0
0.216335 0.296057 -0.462919 76 0 153
-0.529956 0.349544 -0.006428 76 153 0
0.190938 0.097393 0.462008 76 0 153
-0.435192 0.753912 -0.151433 0 255 0
-0.142510 0.699101 -0.492314 76 0 153
-0.443790 0.125369 -0.295447 76 153 0
0.319496 0.845102 0.202958 0 255 0
0.177217 -0.609470 -0.479649 76 0 153
0.468796 -0.181147 -0.249067 76 153 0
0.359968 0.145410 -0.360873 76 0 153
-0.476607 -0.425804 -0.178293 76 0 153
-0.196123 -0.203942 0.485213 76 153 0
-0.173176 -0.336803 -0.505934 76 153 0
-0.287451 0.033029 0.410680 76 0 153
0.526331 -0.383251 0.027737 76 153 0
0.299710 0.753912 -0.011484 0 255 0
0.163825 -0.669450 0.246047 204 51 127
-0.197231 -0.262327 -0.472902 76 0 153
-0.294809 0.706777 0.405177 76 0 153
0.126626 0.052599 0.506541 76 153 0
0.260108 0.162703 0.426706 76 0 153
0.289128 0.488586 0.435682 76 153 0
-0.144358 0.313523 -0.515269 76 153 0
-0.101217 0.403831 0.489655 76 0 153
-0.238209 -0.856392 0.034123 153 0 76
0.390762 0.424808 -0.361409 76 153 0
-0.309408 -0.602920 -0.435252 76 153 0
0.417530 0.641828 -0.329390 76 153 0
0.492016 0.556367 0.106104 76 0 153
-0.429294 0.753912 0.183786 0 255 0
-0.020458 -0.374016 -0.511599 76 0 153
0.502062 -0.149002 0.155762 76 153 0
-0.407052 0.504271 -0.307727 76 0 153
0.301829 0.606954 -0.411226 76 0 153
0.233518 0.194294 0.442090 76 0 153
0.489508 0.221822 0.116350 76 0 153
-0.156141 -0.169529 -0.511800 76 153 0
-0.020254 0.459142 -0.534782 76 153 0
0.164960 -0.114819 0.495467 76 153 0
-0.452078 0.024143 -0.235138 76 0 153
0.304601 0.845102 -0.354029 0 255 0
-0.320801 0.845102 0.247913 0 255 0
-0.133774 -0.781147 -0.518226 153 0 76
-0.115607 0.784054 -0.522686 0 255 0
0.527482 -0.770107 0.007301 153 0 76
-0.474076 -0.736311 0.230152 153 0 76
0.114045 -0.588816 -0.498676 76 0 153
-0.499815 0.692224 0.078770 76 0 153
0.498968 -0.099557 -0.177635 76 153 0
-0.281704 0.092506 0.441763 76 153 0
-0.026560 0.306903 -0.511390 76 0 153
-0.307430 -0.280765 0.424227 76 153 0
-0.505801 0.073431 0.023453 76 0 153
-0.119269 -0.669450 0.470687 204 51 127
0.495746 -0.124841 -0.102995 76 0 153
0.386458 -0.452439 0.352793 76 153 0
0.444023 0.562391 -0.291728 76 153 0
0.214852 0.683823 0.476292 76 153 0
-0.526439 -0.071555 -0.065303 76 153 0
-0.231070 0.356480 -0.482433 76 153 0
-0.179607 -0.420075 0.466871 76 0 153
0.459097 -0.562300 -0.216041 76 0 153
0.270930 -0.293520 0.446714 76 153 0
0.001838 0.132963 -0.512450 76 0 153
-0.139282 0.560761 0.480539 76 0 153
0.352718 0.280930 -0.399177 76 153 0
-0.154299 0.753912 0.318687 0 255 0
0.285007 -0.067550 0.438490 76 153 0
-0.121699 -0.306527 -0.520827 76 153 0
-0.362424 -0.476272 -0.391834 76 153 0
-0.339922 -0.568674 -0.412065 76 153 0
-0.385601 -0.062563 0.356280 76 153 0
-0.043694 -0.414630 -0.510425 76 0 153
-0.529435 0.700479 -0.019739 76 153 0
-0.393163 -0.178734 0.347830 76 153 0
0.183496 0.845102 -0.028250 0 255 0
-0.228711 0.845102 0.323673 0 255 0
-0.360170 -0.782103 -0.159098 153 0 76
0.400291 0.605005 -0.350530 76 153 0
0.011083 0.102271 0.522203 76 153 0
-0.498815 0.373984 0.084884 76 0 153
-0.433100 -0.130357 0.298113 76 153 0
-0.095135 0.665762 0.491011 76 0 153
-0.259075 0.839574 -0.449933 0 255 0
0.111582 0.753912 -0.350757 0 255 0
-0.307778 -0.856392 0.334360 153 0 76
-0.453189 0.374312 -0.233217 76 0 153
0.449605 0.102456 0.270062 76 153 0
-0.048489 -0.669450 0.484343 204 51 127
-0.395613 0.307342 0.345361 76 153 0
-0.063376 -0.214014 -0.508300 76 0 153
0.448180 0.451696 0.226804 76 0 153
0.075982 -0.043959 0.493413 76 0 153
0.526688 0.672359 0.000685 127 0 127
-0.252541 -0.669450 0.368087 204 51 127
-0.398464 0.845102 0.115431 0 255 0
0.511974 0.387703 -0.133972 76 153 0
0.062975 0.109570 0.495408 76 0 153
-0.475248 -0.390722 0.227255 76 153 0
-0.096368 -0.068905 -0.503331 76 0 153
0.146067 -0.423426 -0.490721 76 0 153
0.151647 0.845102 -0.394783 0 255 0
-0.506242 -0.669450 -0.006316 204 51 127
0.420538 0.310480 0.312840 76 153 0
0.046233 -0.669450 -0.356042 204 51 127
0.464758 -0.820341 -0.256778 153 0 76
-0.429498 0.636905 -0.275351 76 0 153
-0.345184 0.180782 -0.376800 76 0 153
-0.490799 -0.193389 -0.131848 76 0 153
0.219479 0.075562 -0.486685 76 153 0
-0.175558 -0.856392 0.159626 153 0 76
0.242758 -0.016983 0.437092 76 0 153
-0.503258 0.634756 0.053837 76 0 153
-0.097149 -0.453795 0.513719 76 153 0
0.527128 -0.579558 0.010028 76 153 0
0.499991 0.471838 0.162704 76 153 0
-0.441379 0.601185 0.286541 76 153 0
0.421982 -0.856392 -0.179729 153 0 76
0.307356 0.819767 -0.436005 0 255 0
-0.502624 0.233959 -0.071571 76 0 153
0.043813 0.753912 -0.150168 0 255 0
0.477666 0.423623 -0.169488 76 0 153
0.240200 0.845102 -0.158116 0 255 0
-0.379743 -0.473995 -0.341508 76 0 153
0.224162 -0.566066 0.471603 76 153 0
-0.505323 -0.481985 -0.046525 76 0 153
-0.504942 0.180201 0.041221 76 0 153
-0.151392 0.845102 -0.464569 0 255 0
0.378639 -0.132960 0.327743 76 0 153
-0.374694 0.059430 0.367828 76 153 0
0.088698 0.845102 0.051930 0 255 0
-0.108554 0.521284 0.487898 76 0 153
-0.342762 0.845102 -0.308104 0 255 0
-0.405272 0.149671 0.334547 76 153 0
0.408182 -0.745610 0.328623 153 0 76
0.485553 -0.541893 -0.212532 76 153 0
0.435237 -0.733919 0.292483 153 0 76
0.102188 0.753912 -0.301954 0 255 0
-0.127341 -0.330497 0.483221 76 0 153
0.011675 -0.431387 -0.511957 76 0 153
0.455785 0.697838 -0.272422 76 153 0
0.322746 0.845102 0.271182 0 255 0
0.188314 -0.856392 0.153272 153 0 76
0.310110 -0.351681 0.392432 76 0 153
-0.271229 -0.669450 -0.375281 204 51 127
-0.527571 -0.718379 -0.039579 204 51 127
0.234338 0.753912 -0.348027 0 255 0
0.153047 -0.669450 -0.472904 204 51 127
0.524086 0.696010 0.055398 76 153 0
0.199808 0.360289 -0.495460 76 153 0
0.286638 0.838516 0.419999 0 255 0
0.526120 -0.451746 -0.046957 76 153 0
-0.386735 0.264001 -0.333730 76 0 153
0.223075 -0.220130 0.472257 76 153 0
0.354348 -0.362644 -0.397303 76 153 0
0.166766 -0.496021 0.470586 76 0 153
0.481628 0.115686 0.145730 76 0 153
-0.067021 -0.153677 0.495077 76 0 153
-0.343245 0.468670 0.365937 76 0 153
-0.422682 -0.611059 -0.286501 76 0 153
-0.369525 0.515723 -0.352726 76 0 153
-0.337032 0.311563 0.371591 76 0 153
0.503463 -0.091536 0.029064 76 0 153
0.525329 -0.079767 -0.056818 76 153 0
-0.518186 0.046803 -0.116400 76 153 0
0.423050 -0.643892 0.269771 76 0 153
0.066516 0.410891 0.494933 76 0 153
0.446953 -0.508999 -0.241611 76 0 153
-0.458542 0.112974 0.209042 76 0 153
-0.170901 0.619732 0.470030 76 0 153
-0.390892 0.730346 0.322769 0 255 0
0.357258 0.121572 0.382331 76 153 0
-0.078294 -0.566628 0.516394 76 153 0
0.217029 -0.856392 -0.184389 153 0 76
0.469118 -0.343199 0.235839 76 153 0
-0.255784 -0.650108 0.430570 76 0 153
0.100735 0.753912 0.179842 0 255 0
-0.411838 -0.802899 -0.339079 153 0 76
0.366607 -0.856392 0.245244 153 0 76
0.259579 -0.163579 -0.466126 76 153 0
-0.313197 0.130473 -0.432839 76 153 0
0.024095 -0.258481 0.498637 76 0 153
0.244615 0.478209 -0.448504 76 0 153
-0.072679 0.845102 0.215689 0 255 0
0.488895 0.351561 -0.132081 76 0 153
0.094175 0.845102 -0.382776 0 255 0
0.074662 0.378665 -0.506425 76 0 153
-0.474873 -0.064061 0.228397 76 153 0
-0.186106 -0.669450 0.110621 204 51 127
-0.413397 -0.173179 -0.299039 76 0 153
0.420726 -0.137833 0.312210 76 153 0
0.498980 -0.125447 0.069142 76 0 153
0.231551 -0.651706 0.468201 76 153 0
-0.326723 0.459240 -0.422992 76 153 0
-0.343221 0.806343 0.396976 0 255 0
-0.430159 0.299264 0.261443 76 0 153
-0.081148 0.358223 -0.528882 76 153 0
-0.073201 -0.669450 -0.127347 204 51 127
-0.490177 0.636367 -0.206845 76 153 0
0.067569 0.247177 -0.507423 76 0 153
-0.473333 -0.103038 0.174492 76 0 153
0.112855 -0.465456 0.486442 76 0 153
-0.258400 -0.172528 -0.441613 76 0 153
0.410900 -0.040487 -0.338032 76 153 0
0.531362 0.772734 0.017407 127 0 127
0.420320 0.388139 -0.325587 76 153 0
0.521804 -0.823940 0.072915 153 0 76
0.437862 0.661428 0.288465 76 153 0
0.143985 -0.669450 -0.341069 204 51 127
-0.451514 -0.679852 -0.268414 204 51 127
-0.079003 -0.856392 -0.141495 153 0 76
0.486862 0.183223 0.197283 76 153 0
-0.527924 0.327486 -0.051807 76 153 0
0.035073 0.100621 -0.533898 76 153 0
0.425785 0.469019 0.265390 76 0 153
-0.336682 0.787434 -0.415076 0 255 0
0.210219 -0.703892 0.465719 204 51 127
-0.263115 0.515982 0.452783 76 153 0
0.275946 0.428453 -0.430002 76 0 153
-0.263730 -0.004399 0.452226 76 153 0
0.527614 -0.644830 -0.000771 76 153 0
0.521530 -0.170361 -0.085820 76 153 0
0.029764 -0.764956 0.521545 153 0 76
0.037977 0.210844 0.520988 76 153 0
-0.119096 -0.651718 -0.498079 76 0 153
-0.275386 0.547049 -0.431600 76 0 153
0.326231 0.753912 -0.157187 0 255 0
-0.149828 0.142515 0.477443 76 0 153
-0.353504 0.051664 -0.400191 76 153 0
0.447500 -0.101322 -0.286200 76 153 0
-0.416020 -0.655260 -0.295497 76 0 153
-0.426544 -0.744283 -0.139807 153 0 76
0.445660 -0.037849 -0.289406 76 153 0
-0.497722 -0.401921 0.174224 76 153 0
-0.328323 -0.543126 -0.392095 76 0 153
0.134074 0.181399 -0.493781 76 0 153
0.360709 0.608787 0.347465 76 0 153
-0.524676 -0.177229 0.065425 76 153 0
-0.049350 0.845102 0.154722 0 255 0
0.498992 0.197005 0.069372 76 0 153
-0.450442 -0.606420 -0.238600 76 0 153
0.498127 -0.464167 0.166898 76 153 0
0.253408 -0.578894 0.456807 76 153 0
0.292949 -0.634073 -0.417727 76 0 153
0.400580 0.753912 -0.162276 0 255 0
0.481821 0.011648 0.208436 76 153 0
0.391859 -0.201673 0.312619 76 0 153
-0.195475 0.753912 -0.463033 0 255 0
-0.139246 0.753912 -0.171924 0 255 0
-0.096745 -0.615175 0.513836 76 153 0
0.019589 0.440688 0.521981 76 153 0
0.432044 -0.158856 -0.267321 76 0 153
0.441998 -0.589052 0.238156 76 0 153
0.473929 -0.126164 0.225675 76 153 0
-0.012486 0.753912 0.186106 0 255 0
0.482668 0.587430 -0.154585 76 0 153
-0.147654 -0.856392 0.097601 153 0 76
-0.475724 -0.560559 0.226045 76 153 0
0.001889 -0.624832 -0.512436 76 0 153
0.080015 -0.274073 0.492806 76 0 153
-0.290749 -0.856392 -0.197767 153 0 76
-0.307630 0.736256 -0.408970 0 255 0
0.063198 0.462842 -0.531267 76 153 0
0.429536 -0.203033 -0.271489 76 0 153
0.011320 0.753912 -0.157975 0 255 0
0.179209 0.136061 -0.478980 76 0 153
-0.125967 -0.856392 -0.413362 153 0 76
0.379291 0.351665 -0.339587 76 0 153
0.388780 -0.288247 -0.329131 76 0 153
-0.375299 -0.831426 -0.379924 153 0 76
0.250533 0.286290 -0.471353 76 153 0
-0.237565 0.139208 -0.479253 76 153 0
0.202268 0.212391 0.481788 76 153 0
0.380574 -0.081015 0.325606 76 0 153
-0.051302 -0.856392 -0.379334 153 0 76
0.375690 0.044761 -0.343547 76 0 153
-0.486173 0.635098 -0.150412 76 0 153
-0.275172 0.248645 0.419004 76 0 153
0.083448 -0.511656 0.515426 76 153 0
0.218994 0.404535 0.474395 76 153 0
-0.032169 -0.248199 -0.511007 76 0 153
0.371043 -0.170209 0.336129 76 0 153
-0.275641 -0.470808 -0.431239 76 0 153
0.488280 -0.646247 0.120883 76 0 153
0.184450 -0.856392 -0.314817 153 0 76
-0.485538 -0.668856 -0.153026 76 0 153
0.404144 0.597275 0.333567 76 153 0
0.521051 -0.405261 0.075715 76 153 0
-0.302431 0.245224 0.399650 76 0 153
-0.180855 0.690748 0.466607 76 0 153
-0.325060 0.585738 0.411406 76 153 0
0.190067 -0.093939 0.486719 76 153 0
0.485334 -0.446258 0.200381 76 153 0
0.219095 0.560305 0.474382 76 153 0
0.231287 0.845102 0.082141 0 255 0
-0.254391 -0.258500 0.457575 76 153 0
0.498528 0.704430 -0.085524 76 0 153
0.276208 0.434136 0.417127 76 0 153
0.000268 0.845102 -0.168708 0 255 0
-0.129278 -0.856392 0.043434 153 0 76
0.180581 -0.856392 0.118259 153 0 76
-0.446813 0.845102 0.195428 0 255 0
0.152160 0.589747 -0.512255 76 153 0
-0.289076 -0.445967 -0.449892 76 153 0
-0.439814 -0.264944 0.288706 76 153 0
0.188308 -0.318248 -0.500095 76 153 0
-0.499610 -0.323963 -0.091871 76 0 153
-0.427253 -0.338524 -0.278927 76 0 153
0.262056 0.223449 0.452124 76 153 0
-0.517504 -0.429384 0.105810 76 153 0
-0.423247 -0.744037 0.312071 153 0 76
-0.141575 -0.573438 -0.492469 76 0 153
0.110230 0.506798 0.487053 76 0 153
-0.003075 0.845102 -0.506518 0 255 0
0.172340 -0.856392 -0.449667 153 0 76
-0.477321 -0.731929 -0.236281 153 0 76
0.288957 -0.579936 -0.448643 76 153 0
-0.529398 0.810695 -0.030197 0 255 0
-0.415595 -0.603582 -0.334388 76 153 0
-0.105895 -0.856392 0.347211 153 0 76
-0.093832 -0.856392 -0.462998 153 0 76
-0.529013 -0.169993 -0.029350 76 153 0
0.087340 -0.428669 -0.527597 76 153 0
-0.068576 0.845102 -0.433865 0 255 0
0.505096 -0.847465 0.145613 153 0 76
-0.074894 0.056552 0.517078 76 153 0
-0.498725 -0.669450 0.049337 204 51 127
-0.492751 -0.514557 0.188502 76 153 0
0.124924 -0.669450 0.291690 204 51 127
0.064928 0.027789 0.495078 76 0 153
-0.122947 -0.143029 0.507954 76 153 0
-0.529227 0.293561 -0.025047 76 153 0
-0.497825 0.276302 0.090966 76 0 153
-0.147203 -0.020226 0.501860 76 153 0
0.417843 0.239240 0.277506 76 0 153
-0.442946 -0.499181 -0.296922 76 153 0
0.377185 0.845102 0.025351 0 255 0
-0.013658 0.264885 0.499339 76 0 153
-0.303358 0.670245 -0.440113 76 153 0
-0.126622 -0.849499 -0.519746 153 0 76
-0.360284 0.383982 0.381658 76 153 0
0.356493 -0.007401 -0.395593 76 153 0
0.137522 -0.856392 0.460463 153 0 76
0.414111 -0.419028 0.282573 76 0 153
0.326488 -0.532563 -0.391948 76 0 153
0.493620 0.081200 -0.192889 76 153 0
-0.476979 0.753912 -0.098136 0 255 0
-0.486600 -0.823164 -0.114593 153 0 76
0.393281 -0.669450 0.023504 204 51 127
0.392240 0.540880 -0.325015 76 0 153
0.019462 0.574108 0.498984 76 0 153
0.520926 0.381185 0.077434 76 153 0
-0.467661 0.139564 0.242270 76 153 0
0.476458 -0.403060 -0.232651 76 153 0
0.406627 0.260677 -0.305554 76 0 153
0.498126 0.596108 0.075957 76 0 153
-0.110343 -0.724461 0.510993 153 0 76
0.120939 0.106508 0.507917 76 153 0
0.176267 -0.856392 -0.279860 153 0 76
-0.329070 -0.180149 0.378836 76 0 153
0.042367 0.753912 -0.316695 0 255 0
0.176151 -0.669450 0.321236 204 51 127
0.319114 -0.432005 -0.398349 76 0 153
-0.084708 -0.669450 0.401556 204 51 127
0.361785 0.467038 0.346295 76 0 153
0.173413 0.498824 0.492885 76 153 0
0.517266 0.449253 -0.110878 76 153 0
0.275713 0.696158 -0.456841 76 153 0
-0.363503 0.449954 0.346655 76 0 153
-0.311269 0.845102 -0.229197 0 255 0
0.454418 -0.104403 0.261739 76 153 0
0.504902 -0.429297 -0.012150 76 0 153
-0.270285 0.333691 -0.434584 76 0 153
0.358228 -0.856392 0.106466 153 0 76
0.412155 0.015276 0.323602 76 153 0
0.109717 0.496075 -0.523238 76 153 0
-0.514237 0.106325 -0.133307 76 153 0
0.207916 -0.856392 -0.392755 153 0 76
-0.206937 0.608056 -0.493320 76 153 0
0.313883 -0.632947 0.389632 76 0 153
0.271376 0.845102 -0.314939 0 255 0
0.442455 0.436950 0.281835 76 153 0
-0.506263 0.412645 0.016486 76 0 153
0.468839 -0.294389 0.236350 76 153 0
-0.411972 -0.744283 0.076427 153 0 76
-0.489062 -0.197598 0.196946 76 153 0
-0.498654 0.074738 -0.184543 76 153 0
-0.134163 0.246549 0.505311 76 153 0
-0.299618 0.189997 -0.442679 76 153 0
-0.185314 0.845102 -0.041778 0 255 0
0.289275 -0.609320 0.435741 76 153 0
0.337169 0.575056 0.369475 76 0 153
0.184668 -0.575319 0.488542 76 153 0
0.481281 -0.669450 0.038150 204 51 127
-0.458936 -0.817596 0.258079 153 0 76
-0.028862 -0.669450 -0.285192 204 51 127
-0.175802 0.178532 -0.505256 76 153 0
-0.280809 -0.132706 0.415573 76 0 153
0.023365 -0.128726 -0.534344 76 153 0
0.522226 0.100167 -0.081507 76 153 0
-0.301934 0.753912 0.252294 0 255 0
0.417011 0.086080 -0.329942 76 153 0
0.423363 -0.606028 -0.320873 76 153 0
0.467745 0.071732 0.184664 76 0 153
0.054251 -0.164887 -0.532246 76 153 0
0.125104 0.282708 -0.519578 76 153 0
0.393330 0.753912 0.091013 0 255 0
-0.084115 -0.510345 -0.528291 76 153 0
0.106964 -0.512798 0.487912 76 0 153
-0.082958 0.845102 0.350084 0 255 0
0.009758 0.753912 -0.227616 0 255 0
-0.217488 0.455727 0.450784 76 0 153
0.389479 -0.452788 -0.328361 76 0 153
0.336413 -0.856392 0.169036 153 0 76
0.457387 0.329355 -0.269511 76 153 0
-0.209478 -0.217909 0.454321 76 0 153
0.102316 0.686653 0.512289 76 153 0
-0.132636 0.753912 0.343574 0 255 0
-0.101993 -0.066725 0.489518 76 0 153
-0.342844 -0.856392 0.239479 153 0 76
0.118802 0.540070 0.485023 76 0 153
-0.110399 0.845102 -0.121699 0 255 0
-0.320392 -0.480860 0.386282 76 0 153
-0.400514 -0.082353 -0.316432 76 0 153
0.175717 -0.856392 0.371481 153 0 76
-0.431686 0.493470 0.259035 76 0 153
-0.310811 -0.577979 0.421580 76 153 0
0.479153 0.753912 -0.017530 0 255 0
-0.385301 0.275759 -0.369520 76 153 0
0.526174 -0.388567 -0.046283 76 153 0
-0.374943 -0.567742 0.334003 76 0 153
0.096095 0.148553 0.490437 76 0 153
-0.438498 0.315800 -0.303441 76 153 0
0.366834 -0.303054 0.340775 76 0 153
-0.098188 -0.737832 -0.526057 153 0 76
0.069837 -0.212723 -0.530087 76 153 0
0.271231 0.845102 -0.048685 0 255 0
-0.490973 0.402455 0.119555 76 0 153
0.441049 -0.856392 0.240283 153 0 76
-0.010719 0.535481 0.522449 76 153 0
0.258261 -0.219048 0.454138 76 153 0
-0.371385 -0.751066 0.371131 153 0 76
0.001196 0.280476 -0.512479 76 0 153
-0.129349 -0.856392 0.123412 153 0 76
0.171581 0.753912 -0.420815 0 255 0
0.280351 -0.008349 -0.427057 76 0 153
-0.007442 0.756170 0.514173 0 255 0
0.252336 0.379065 0.431379 76 0 153
0.400123 0.621380 0.301630 76 0 153
-0.391747 0.079896 0.315492 76 0 153
0.506687 -0.020411 0.141247 76 153 0
0.358739 0.506351 0.381248 76 153 0
-0.090400 -0.669450 -0.488584 204 51 127
-0.470047 -0.464459 -0.196710 76 0 153
-0.050305 -0.180430 0.520206 76 153 0
0.413486 -0.855978 0.311299 153 0 76
-0.520219 -0.625667 0.093883 76 153 0
0.289669 -0.100739 0.435400 76 153 0
-0.131391 -0.669450 -0.188872 204 51 127
-0.365222 0.753912 -0.014032 0 255 0
-0.340256 0.411636 -0.381290 76 0 153
-0.515584 -0.692488 -0.058633 204 51 127
0.017477 -0.669450 -0.492819 204 51 127
0.119087 -0.404997 0.508208 76 153 0
-0.359477 0.835279 0.367030 0 255 0
-0.362548 -0.518705 0.347653 76 0 153
-0.484619 -0.593684 -0.155795 76 0 153
0.478247 -0.528626 0.155134 76 0 153
0.053641 0.683200 0.519424 76 153 0
0.438021 -0.497131 0.288214 76 153 0
0.149579 -0.594494 0.500469 76 153 0
0.468063 0.163573 0.237667 76 153 0
-0.389320 -0.354210 -0.364750 76 153 0
0.215747 -0.010084 0.475688 76 153 0
0.343927 0.247738 -0.376129 76 0 153
-0.506157 0.522745 0.150324 76 153 0
-0.471091 0.345459 -0.194115 76 0 153
-0.494632 0.125226 0.104479 76 0 153
-0.216049 -0.507114 0.451215 76 0 153
0.474344 0.644077 0.225329 76 153 0
-0.494240 -0.789178 -0.114097 153 0 76
-0.202832 -0.285860 0.457462 76 0 153
-0.427744 0.004599 0.305559 76 153 0
-0.041818 -0.661824 -0.510520 76 0 153
0.034750 -0.560685 0.521008 76 153 0
-0.377108 -0.856392 -0.277109 153 0 76
0.178721 0.753912 -0.297031 0 255 0
0.456510 -0.677833 0.257619 76 153 0
-0.523235 -0.576279 0.074857 76 153 0
-0.509735 0.719873 -0.122097 0 255 0
-0.422807 0.341653 0.273620 76 0 153
-0.046405 0.845102 0.276718 0 255 0
0.491677 -0.492960 -0.120453 76 0 153
-0.480399 -0.045107 -0.167646 76 0 153
0.043330 0.428187 -0.510509 76 0 153
-0.448233 -0.117020 -0.288501 76 153 0
0.243610 0.430428 0.436440 76 0 153
-0.244441 -0.444989 -0.475914 76 153 0
-0.064133 -0.669450 -0.295023 204 51 127
0.286521 -0.496967 0.437502 76 153 0
0.431136 0.177764 -0.268929 76 0 153
0.035668 0.477677 -0.510897 76 0 153
-0.377741 -0.552847 -0.343719 76 0 153
-0.403465 0.676410 -0.349191 76 153 0
0.390877 -0.856392 -0.027830 153 0 76
0.387932 -0.386260 0.317482 76 0 153
0.259624 0.334085 -0.439761 76 0 153
-0.204502 -0.035918 0.456672 76 0 153
0.430953 -0.699248 0.277883 204 51 127
0.065660 -0.548301 -0.530527 76 153 0
0.438084 -0.454829 0.244687 76 0 153
0.526175 0.782281 -0.048137 0 255 0
0.457203 0.387872 0.257423 76 153 0
-0.511053 0.448801 -0.145540 76 153 0
-0.067811 -0.110584 0.494962 76 0 153
0.493951 -0.461396 0.098051 76 0 153
0.174784 0.192698 0.492272 76 153 0
-0.150245 0.627298 0.500912 76 153 0
0.081065 0.293618 0.515904 76 153 0
0.171367 0.845102 -0.251857 0 255 0
-0.498487 0.023045 0.086036 76 0 153
-0.403073 -0.707473 0.319010 204 51 127
-0.529942 -0.582300 -0.006802 76 153 0
-0.236667 -0.774911 -0.479778 153 0 76
-0.335637 0.236310 -0.385477 76 0 153
-0.277195 0.477899 -0.457328 76 153 0
0.150575 0.760940 0.496630 0 255 0
-0.220991 -0.224101 -0.486860 76 153 0
-0.147374 0.734478 0.478148 0 255 0
-0.322894 0.193850 0.384376 76 0 153
-0.485124 -0.263489 -0.154380 76 0 153
-0.020950 0.152057 -0.534643 76 153 0
0.306141 0.211914 0.395413 76 0 153
0.180025 -0.823948 0.490526 153 0 76
-0.411573 0.472188 0.326872 76 153 0
0.106756 -0.752397 -0.523942 153 0 76
0.476384 0.014653 -0.233177 76 153 0
0.193106 0.518556 -0.498043 76 153 0
-0.395150 -0.313022 -0.358314 76 153 0
0.019155 0.753912 0.342429 0 255 0
0.328424 0.283222 -0.419937 76 153 0
-0.400497 0.337869 0.339946 76 153 0
-0.179188 -0.649160 0.467021 76 0 153
0.527041 0.419821 -0.033639 76 153 0
0.447786 -0.281651 -0.285564 76 153 0
0.355945 -0.855219 -0.389789 153 0 76
0.006051 -0.856392 0.030064 153 0 76
0.269037 -0.669450 -0.292343 204 51 127
0.354849 -0.541451 -0.366261 76 0 153
-0.374471 0.141223 0.334537 76 0 153
-0.526586 0.067197 0.050939 76 153 0
0.384047 -0.276524 0.321772 76 0 153
-0.314320 -0.430902 0.419108 76 153 0
-0.476206 -0.276055 0.166430 76 0 153
0.517995 -0.110424 0.094500 76 153 0
-0.047184 -0.856392 0.408528 153 0 76
-0.233805 0.799259 0.468599 0 255 0
-0.487183 0.373441 0.134697 76 0 153
-0.404401 -0.825636 0.196546 153 0 76
-0.505685 0.414370 -0.041142 76 0 153
0.243722 -0.387041 0.436512 76 0 153
0.527485 0.803550 0.013243 0 255 0
-0.529732 0.092357 -0.012142 76 153 0
-0.160949 0.753912 0.457298 0 255 0
-0.173712 0.449999 0.493232 76 153 0
-0.470876 0.654836 0.182014 76 0 153
0.297879 -0.481277 -0.442193 76 153 0
0.199431 0.603218 -0.470658 76 0 153
0.511751 -0.822331 0.121901 153 0 76
-0.525394 -0.161202 -0.073001 76 153 0
-0.473824 -0.772527 -0.243073 153 0 76
-0.340025 -0.196381 -0.381468 76 0 153
-0.523557 -0.564821 -0.085236 76 153 0
-0.137844 -0.850302 0.503743 153 0 76
0.243704 0.845102 -0.085864 0 255 0
-0.245582 0.753912 0.023751 0 255 0
-0.525921 0.259075 -0.069471 76 153 0
-0.258150 0.845102 0.424916 0 255 0
0.010777 -0.178521 0.499310 76 0 153
-0.108236 -0.669450 -0.333839 204 51 127
-0.221880 0.307484 0.474028 76 153 0
0.441267 0.642299 -0.251576 76 0 153
0.381615 0.479304 -0.336976 76 0 153
-0.324423 0.525487 -0.395538 76 0 153
-0.288939 0.753912 -0.210218 0 255 0
0.446542 -0.478467 -0.287539 76 153 0
0.120771 -0.669450 0.406285 204 51 127
0.522230 -0.496977 0.066963 76 153 0
0.241623 -0.856392 -0.288096 153 0 76
-0.365059 -0.669450 0.158784 204 51 127
-0.355201 -0.117324 0.355167 76 0 153
-0.121445 -0.471763 -0.497493 76 0 153
0.291281 0.047903 -0.447090 76 153 0
0.092032 -0.553568 0.490996 76 0 153
0.488636 0.579928 -0.205468 76 153 0
0.278431 0.646783 0.415632 76 0 153
0.371182 -0.235034 0.369291 76 153 0
-0.096298 0.153166 0.513739 76 153 0
0.487189 -0.070674 -0.209392 76 153 0
0.246186 0.554055 0.434866 76 0 153
0.453869 -0.244996 -0.227048 76 0 153
0.385123 0.845102 -0.093773 0 255 0
-0.434408 -0.789178 -0.071255 153 0 76
0.526358 0.203351 0.024584 76 153 0
-0.330795 -0.211386 0.377273 76 0 153
-0.353516 0.265554 -0.369244 76 0 153
-0.314034 0.753912 -0.059838 0 255 0
0.513320 0.834931 0.053584 0 255 0
0.356447 -0.856392 0.023861 153 0 76
-0.192639 -0.536218 0.462230 76 0 153
-0.472487 -0.354871 0.176865 76 0 153
-0.267178 -0.669450 -0.117700 204 51 127
0.492236 0.662147 -0.117763 76 0 153
-0.501197 -0.340040 0.068038 76 0 153
0.220355 -0.174290 0.448253 76 0 153
-0.415227 0.845102 -0.091088 0 255 0
-0.443327 -0.436200 0.283701 76 153 0
0.114510 -0.856392 0.260475 153 0 76
-0.495771 -0.588303 0.179778 76 153 0
0.342185 0.655500 -0.377614 76 0 153
-0.284887 0.369182 -0.452446 76 153 0
-0.283872 0.459579 0.413232 76 0 153
0.479259 0.586943 0.214363 76 153 0
0.410564 -0.163817 0.287361 76 0 153
-0.485676 0.365212 -0.152284 76 0 153
-0.528685 0.663019 -0.038858 76 153 0
-0.111100 0.732357 -0.500397 0 255 0
0.183019 0.420754 0.489324 76 153 0
0.301128 0.161619 -0.411709 76 0 153
0.343332 0.294744 0.394786 76 153 0
0.489227 0.435208 -0.130875 76 0 153
0.342078 0.753912 0.242279 0 255 0
-0.331504 0.443050 -0.389174 76 0 153
0.200098 -0.595180 -0.495212 76 153 0
-0.161580 0.304464 0.497366 76 153 0
-0.299948 0.843977 0.405336 0 255 0
0.122442 -0.856392 0.323365 153 0 76
0.027976 -0.856392 -0.479732 153 0 76
-0.414574 0.845102 0.014729 0 255 0
0.526688 0.730327 -0.028884 127 0 127
-0.377097 -0.007403 -0.344429 76 0 153
0.325035 -0.306029 -0.422455 76 153 0
-0.298173 0.508773 -0.415488 76 0 153
-0.420517 -0.011871 0.276927 76 0 153
0.181484 0.669636 -0.502550 76 153 0
0.097980 0.753912 -0.140899 0 255 0
0.090442 -0.032054 -0.504030 76 0 153
0.348745 0.299585 -0.371759 76 0 153
-0.435339 0.136012 0.295096 76 153 0
0.460802 0.201016 -0.263488 76 153 0
0.186129 -0.669450 0.457906 204 51 127
-0.187952 0.753912 0.041189 0 255 0
0.194536 0.753912 0.463970 0 255 0
0.504640 -0.126520 0.005016 76 0 153
0.486564 -0.279012 0.127789 76 0 153
0.310207 -0.856392 -0.265924 153 0 76
-0.022805 -0.669450 -0.004703 204 51 127
-0.529401 0.480504 -0.020611 76 153 0
-0.428689 0.557790 0.304579 76 153 0
0.107551 0.658016 -0.500274 76 0 153
-0.080469 0.357819 0.516417 76 153 0
0.306955 0.139945 -0.435851 76 153 0
0.100771 -0.182391 0.489457 76 0 153
-0.504266 -0.335855 -0.059928 76 0 153
0.364211 0.050845 0.343669 76 0 153
-0.253413 -0.309261 -0.470855 76 153 0
0.513803 -0.709040 -0.057723 204 51 127
0.335841 0.753912 0.279921 0 255 0
0.177514 -0.734861 -0.503717 153 0 76
-0.067249 0.845102 -0.505403 0 255 0
0.504627 0.730346 -0.068372 0 255 0
-0.276845 -0.856392 0.015360 153 0 76
-0.499667 0.183258 0.078656 76 0 153
0.164724 -0.423905 0.495399 76 153 0
-0.028275 -0.109754 -0.511204 76 0 153
0.120903 -0.290872 0.484433 76 0 153
-0.162922 0.669794 0.496995 76 153 0
0.052372 0.705297 0.496778 76 0 153
0.500477 0.164901 0.059125 76 0 153
-0.369572 0.101672 -0.385524 76 153 0
-0.346537 0.667387 0.362903 76 0 153
-0.387194 0.829117 -0.360091 0 255 0
0.452542 0.067937 -0.277693 76 153 0
0.501363 -0.856392 0.038905 153 0 76
0.160552 0.753912 0.243784 0 255 0
0.362117 0.720774 -0.379598 0 255 0
-0.238513 -0.484659 0.440599 76 0 153
0.138462 -0.684403 -0.504267 204 51 127
0.445056 -0.116791 -0.245605 76 0 153
-0.506408 0.662231 0.013276 76 0 153
-0.190791 0.466674 -0.499914 76 153 0
-0.383464 0.845102 0.238947 0 255 0
0.002626 -0.669450 0.098233 204 51 127
0.191547 -0.060724 0.461755 76 0 153
0.317030 -0.649757 0.415468 76 153 0
0.493512 -0.574508 0.180315 76 153 0
0.363313 -0.669450 -0.315450 204 51 127
-0.473147 -0.388614 -0.244560 76 153 0
0.386099 -0.340744 0.319506 76 0 153
-0.281057 -0.601647 -0.454570 76 153 0
-0.001628 0.224616 0.522415 76 153 0
0.500159 0.742186 0.063730 0 255 0
-0.073768 0.001207 0.494094 76 0 153
-0.117652 -0.264267 0.485628 76 0 153
-0.504819 -0.298971 -0.056137 76 0 153
-0.390506 -0.455692 0.316865 76 0 153
-0.424055 -0.856392 -0.276210 153 0 76
-0.072106 0.753912 -0.080771 0 255 0
-0.135054 -0.523190 -0.494097 76 0 153
0.527775 -0.201828 -0.004324 76 153 0
0.360619 0.753912 -0.325857 0 255 0
0.204365 0.845102 -0.235420 0 255 0
-0.084438 -0.669450 0.019411 204 51 127
-0.028556 0.717827 -0.529414 0 255 0
0.526128 -0.163009 -0.048096 76 153 0
-0.334041 -0.815102 -0.416998 153 0 76
0.423203 -0.040465 0.308897 76 153 0
0.244505 0.028001 -0.474690 76 153 0
-0.503250 0.395751 0.054469 76 0 153
0.364607 0.111095 -0.355760 76 0 153
0.425681 -0.554602 -0.317735 76 153 0
-0.133009 -0.542014 0.505412 76 153 0
-0.040651 0.468393 0.498080 76 0 153
0.460446 -0.114766 0.200324 76 0 153
-0.125495 0.329327 -0.496594 76 0 153
0.164502 0.086266 -0.508379 76 153 0
0.497455 -0.226499 -0.091648 76 0 153
-0.465437 0.192343 0.246475 76 153 0
0.374850 0.606866 -0.378228 76 153 0
-0.054933 0.241047 -0.532316 76 153 0
-0.182431 0.077283 0.465883 76 0 153
-0.173365 0.430799 -0.481872 76 0 153
-0.499126 0.661747 0.083677 76 0 153
0.163847 -0.481652 -0.508339 76 153 0
-0.207312 0.775231 0.480672 0 255 0
-0.511725 0.689081 -0.142840 76 153 0
-0.148672 0.845102 0.440503 0 255 0
0.461032 -0.162875 0.199084 76 0 153
0.508171 -0.680507 -0.095981 204 51 127
0.484943 0.722068 -0.147734 76 0 153
0.124952 -0.845255 0.507212 153 0 76
0.136290 0.270488 0.504207 76 153 0
-0.225649 -0.001840 0.446678 76 0 153
-0.320025 -0.658051 0.414806 76 153 0
-0.014716 0.234589 -0.534953 76 153 0
-0.353988 -0.665974 -0.368788 76 0 153
0.487947 0.845102 -0.012010 0 255 0
-0.510816 0.346044 0.133650 76 153 0
-0.191126 -0.856392 -0.248287 153 0 76
0.164186 0.288280 0.495923 76 153 0
-0.149797 -0.669450 0.085681 204 51 127
0.047637 0.845102 -0.236363 0 255 0
-0.194801 0.753912 0.311472 0 255 0
0.506675 -0.728805 -0.153940 153 0 76
-0.115004 0.302197 0.486432 76 0 153
0.037430 0.845102 0.102009 0 255 0
-0.029225 -0.175135 -0.534157 76 153 0
-0.305397 -0.741971 0.426044 153 0 76
-0.308534 -0.800801 0.423672 153 0 76
-0.507172 0.501134 -0.008976 76 0 153
-0.515422 -0.126945 -0.127851 76 153 0
0.148549 0.845102 0.428960 0 255 0
-0.470225 0.302234 -0.250248 76 153 0
-0.289369 -0.700819 0.422855 204 51 127
-0.081213 -0.112596 -0.528835 76 153 0
0.271948 0.596325 0.446378 76 153 0
0.388901 0.561905 0.316221 76 0 153
-0.229026 -0.179814 0.445083 76 0 153
0.221755 0.753912 0.292278 0 255 0
0.394538 0.663470 0.344360 76 153 0
0.290245 -0.856392 0.023015 153 0 76
0.269188 -0.274007 0.421188 76 0 153
-0.190990 0.753912 -0.066040 0 255 0
-0.498784 -0.165947 -0.097540 76 0 153
-0.424172 -0.856392 0.258995 153 0 76
0.016449 0.674869 0.521995 76 153 0
-0.058999 -0.856392 -0.190576 153 0 76
0.236023 0.753912 0.447133 0 255 0
-0.365994 0.098741 0.376325 76 153 0
-0.484990 -0.328825 0.141781 76 0 153
-0.464989 -0.213988 -0.207817 76 0 153
-0.468929 -0.782657 -0.207536 153 0 76
-0.477691 0.167282 0.222431 76 153 0
0.527673 -0.041862 -0.013314 76 153 0
-0.230876 -0.856392 0.294817 153 0 76
0.033316 -0.292470 0.498171 76 0 153
-0.370475 -0.477578 0.371912 76 153 0
0.054976 -0.303289 -0.532091 76 153 0
0.119398 0.845102 0.138351 0 255 0
0.133751 -0.845666 -0.517281 153 0 76
0.072170 -0.856392 0.150293 153 0 76
-0.182634 0.845102 0.168566 0 255 0
-0.207890 0.088967 -0.492926 76 153 0
-0.175017 -0.709040 0.480706 204 51 127
-0.387777 0.195212 -0.332599 76 0 153
-0.213727 0.366188 0.452511 76 0 153
-0.452460 -0.165827 -0.281218 76 153 0
-0.470362 0.510167 0.236930 76 153 0
0.491765 0.794688 -0.024048 127 0 127
0.118845 -0.796248 0.508718 153 0 76
0.475198 -0.094899 -0.235687 76 153 0
-0.514391 0.181330 -0.132775 76 153 0
-0.401413 -0.127026 -0.315219 76 0 153
0.492109 0.022289 -0.196871 76 153 0
0.143970 -0.178227 -0.491242 76 0 153
0.175456 -0.013302 0.491945 76 153 0
0.481617 0.845102 -0.162529 0 255 0
-0.071119 0.753912 -0.024188 0 255 0
-0.483481 -0.478814 0.146014 76 0 153
-0.419487 0.094520 0.316943 76 153 0
-0.458763 -0.807542 0.178127 153 0 76
0.480672 0.286352 -0.224057 76 153 0
0.072885 -0.669450 0.347946 204 51 127
0.403923 0.221299 0.333724 76 153 0
-0.377908 0.353558 -0.343488 76 0 153
0.435301 0.408987 0.292162 76 153 0
-0.505648 -0.390072 -0.039901 76 0 153
0.446447 -0.424073 0.229944 76 0 153
-0.400306 0.473987 -0.316896 76 0 153
-0.290323 -0.268030 -0.421343 76 0 153
-0.461550 -0.165414 -0.215095 76 0 153
-0.291094 -0.368058 0.435885 76 153 0
-0.089819 0.474340 0.491874 76 0 153
0.426669 -0.669450 0.001694 204 51 127
0.503966 0.133303 0.019331 76 0 153
0.226093 -0.047561 -0.458151 76 0 153
-0.229844 0.229058 -0.483045 76 153 0
-0.360170 -0.803367 0.016036 153 0 76
-0.384792 -0.259819 -0.335934 76 0 153
0.003406 0.079310 -0.512374 76 0 153
0.259176 -0.217227 -0.439954 76 0 153
0.273205 -0.669450 -0.184013 204 51 127
0.038870 0.845102 0.382113 0 255 0
0.340653 0.368237 -0.379079 76 0 153
-0.139115 -0.669450 0.144895 204 51 127
-0.517308 0.674013 0.108032 76 153 0
0.099837 0.627551 0.489441 76 0 153
0.502198 -0.602907 -0.060151 76 0 153
0.045119 0.289185 0.520310 76 153 0
0.063335 0.753912 0.281189 0 255 0
0.078158 -0.856392 -0.036309 153 0 76
-0.232190 -0.236090 0.469069 76 153 0
0.499447 -0.433408 0.163059 76 153 0
-0.279511 -0.530818 -0.428910 76 0 153
0.201720 -0.147122 0.481959 76 153 0
0.265012 -0.816982 0.450526 153 0 76
0.252774 -0.669450 -0.363008 204 51 127
-0.525114 0.696978 -0.076058 76 153 0
0.388257 -0.829836 -0.363955 153 0 76
0.094783 -0.057024 0.513691 76 153 0
0.525372 0.044392 0.043878 76 153 0
0.262205 -0.612980 -0.438138 76 0 153
-0.063159 -0.706799 -0.519664 204 51 127
0.165668 -0.074963 -0.483762 76 0 153
-0.507036 0.140161 0.147367 76 153 0
0.460617 0.829498 0.240112 0 255 0
0.501022 -0.685184 0.117141 204 51 127
-0.360179 -0.421402 0.350261 76 0 153
0.058161 -0.005812 -0.508736 76 0 153
-0.524647 -0.258076 0.065417 76 153 0
-0.133520 0.845102 0.473179 0 255 0
-0.020892 0.008143 0.521858 76 153 0
0.503770 -0.653073 -0.034547 76 0 153
0.076753 0.381219 0.493455 76 0 153
-0.529412 -0.210356 -0.020325 76 153 0
-0.133818 0.753912 0.227482 0 255 0
-0.091114 0.845102 -0.269380 0 255 0
0.278959 -0.200153 0.442050 76 153 0
-0.104384 -0.856392 0.284763 153 0 76
-0.510375 -0.815618 0.136213 153 0 76
0.005847 0.753912 -0.429522 0 255 0
0.079432 -0.484932 0.492894 76 0 153
-0.161196 -0.631487 0.497204 76 153 0
0.241420 0.219011 -0.476387 76 153 0
-0.443824 -0.669450 0.181525 204 51 127
0.494905 -0.353083 -0.189216 76 153 0
-0.165918 0.576199 -0.508794 76 153 0
-0.146708 0.059461 0.501977 76 153 0
-0.513770 -0.442384 -0.134316 76 153 0
0.218788 -0.669450 0.215310 204 51 127
-0.256555 0.690172 -0.442634 76 0 153
-0.267915 0.182254 0.423338 76 0 153
0.458538 0.423980 0.255169 76 153 0
0.180224 -0.669450 -0.352219 204 51 127
0.323592 0.486830 -0.394432 76 0 153
-0.113090 0.548279 -0.499526 76 0 153
0.302851 -0.364236 0.425995 76 153 0
-0.463680 -0.035739 0.249542 76 153 0
0.527756 -0.241134 -0.003910 76 153 0
-0.368913 -0.744743 0.150579 153 0 76
-0.148332 0.845102 0.298499 0 255 0
-0.438589 0.724498 0.247006 76 0 153
0.299755 0.660565 -0.441184 76 153 0
-0.433491 0.553754 -0.268591 76 0 153
-0.016566 0.497525 -0.511881 76 0 153
-0.332826 -0.153965 0.405491 76 153 0
-0.082013 -0.458443 -0.528598 76 153 0
-0.301427 0.033063 -0.441331 76 153 0
-0.278669 0.753912 -0.358671 0 255 0
-0.059954 -0.484948 0.518942 76 153 0
0.371892 -0.657290 0.368630 76 153 0
-0.448708 -0.280586 0.229658 76 0 153
0.401369 -0.255276 -0.312577 76 0 153
0.293465 -0.669450 -0.248193 204 51 127
0.212209 0.391081 -0.490132 76 153 0
0.202659 0.753912 0.087946 0 255 0
-0.084323 0.511999 -0.505361 76 0 153
0.139354 -0.623016 0.503383 76 153 0
-0.056383 0.631891 0.519435 76 153 0
-0.482596 -0.102036 -0.224169 76 153 0
0.518824 0.222991 -0.103378 76 153 0
0.273506 -0.798420 -0.458347 153 0 76
0.104539 -0.527305 -0.501037 76 0 153
0.500104 0.567117 -0.175250 76 153 0
-0.301367 -0.194423 0.428704 76 153 0
0.476096 -0.629014 -0.173529 76 0 153
0.349236 -0.403220 -0.401887 76 153 0
0.421537 -0.002283 -0.284782 76 0 153
-0.008900 0.845102 0.471582 0 255 0
-0.001411 -0.376708 -0.535150 76 153 0
-0.223174 0.086942 -0.460612 76 0 153
-0.222380 -0.669450 0.371902 204 51 127
0.036255 -0.396650 -0.533669 76 153 0
-0.250614 -0.482847 -0.446298 76 0 153
-0.493784 0.329128 -0.120443 76 0 153
-0.475980 -0.241385 0.167063 76 0 153
0.461158 0.256627 -0.211917 76 0 153
