ply
format ascii 1.0
element vertex 1275
property float x
property float y
property float z
property uchar red
property uchar green
property uchar blue
end_header
-0.193054 -0.856392 0.019549 153 0 76
0.278783 -0.856392 -0.410032 153 0 76
-0.274219 0.753912 0.059439 0 255 0
0.434234 0.810289 0.294048 0 255 0
0.120704 -0.856392 -0.418914 153 0 76
-0.348807 0.753912 -0.273010 0 255 0
0.492303 0.638869 0.104785 76 0 153
-0.419552 0.449027 0.316873 76 0 153
-0.470799 0.590852 -0.194895 76 153 0
-0.323500 -0.669450 -0.266594 204 51 127
0.342158 0.029295 -0.408540 76 153 0
-0.360390 0.171132 0.350047 76 0 153
0.335954 -0.669450 -0.210370 204 51 127
0.014070 -0.511895 0.499143 76 153 0
0.196234 0.845102 0.453192 0 255 0
0.362702 0.692039 0.345233 76 0 153
0.407925 0.753912 0.027657 0 255 0
0.030526 0.753912 0.230338 0 255 0
0.322624 -0.352966 0.411571 76 0 153
0.510901 -0.705825 -0.078889 204 51 127
0.083009 0.007032 -0.528306 76 153 0
-0.392967 -0.669450 0.025815 204 51 127
-0.347231 0.313835 0.393194 76 153 0
0.527680 0.432392 -0.013087 76 153 0
0.113686 -0.366123 0.486234 76 0 153
0.372510 0.753912 -0.172289 0 255 0
-0.122169 0.218962 0.484607 76 0 153
-0.524899 0.710618 0.058498 76 153 0
0.352838 0.359937 -0.399119 76 153 0
0.327423 -0.641851 0.407888 76 153 0
-0.398525 0.753912 -0.103233 0 255 0
-0.129329 -0.856392 -0.247829 153 0 76
0.469349 -0.012741 -0.192460 76 0 153
-0.199609 -0.131178 0.483716 76 153 0
-0.033557 0.484141 0.498432 76 0 153
-0.149851 0.382500 -0.489947 76 0 153
0.319084 0.845102 0.224943 0 255 0
0.403540 -0.669450 0.165964 204 51 127
0.232736 -0.627794 -0.455012 76 0 153
0.319060 0.260569 0.385835 76 0 153
-0.015766 0.753912 0.391095 0 255 0
-0.450444 0.692035 0.226717 76 0 153
-0.476699 0.215943 0.165327 76 0 153
0.504387 0.157816 0.010853 76 0 153
-0.234467 0.845102 -0.282202 0 255 0
0.077411 -0.734009 -0.529229 153 0 76
0.185821 0.482409 -0.476755 76 0 153
0.269191 0.703894 0.448036 76 153 0
-0.048012 -0.856392 0.412928 153 0 76
-0.259777 0.753912 -0.077611 0 255 0
-0.357689 0.527619 -0.396567 76 153 0
0.203171 0.590812 0.481464 76 153 0
-0.093717 0.753912 -0.095595 0 255 0
0.447659 -0.779980 0.273239 153 0 76
0.236666 0.643699 -0.478668 76 153 0
-0.478416 -0.823164 0.079828 153 0 76
-0.008912 -0.251638 -0.535044 76 153 0
0.504257 -0.029364 0.149474 76 153 0
0.232526 -0.122454 0.468000 76 153 0
0.501897 -0.440488 -0.062150 76 0 153
-0.515091 -0.823164 -0.093315 153 0 76
0.128576 0.845102 -0.229680 0 255 0
0.100797 -0.669450 0.390720 204 51 127
-0.293717 0.828296 0.428957 0 255 0
0.515591 0.255885 -0.118111 76 153 0
-0.000633 -0.005397 0.522440 76 153 0
-0.254142 -0.856392 -0.098532 153 0 76
0.265191 -0.855016 0.445218 153 0 76
-0.179113 0.720316 0.483539 76 0 153
-0.228322 0.341911 0.445599 76 0 153
-0.385413 0.753912 0.130047 0 255 0
0.142462 -0.669450 0.047634 204 51 127
-0.454375 0.134794 0.265656 76 153 0
0.131880 -0.255197 -0.517880 76 153 0
0.478679 0.845102 -0.033287 0 255 0
-0.305248 0.753912 0.266072 0 255 0
-0.492925 -0.045866 0.111176 76 0 153
0.478590 -0.504018 -0.227869 76 153 0
0.358410 -0.255481 -0.393709 76 0 153
0.079894 0.724081 -0.505664 0 255 0
0.503224 -0.093522 -0.045358 76 0 153
0.138176 -0.856392 0.056617 153 0 76
0.353421 -0.512313 -0.398045 76 153 0
0.524914 -0.841678 0.046414 153 0 76
-0.337288 0.019213 -0.414458 76 153 0
0.508153 0.653629 -0.148686 76 153 0
-0.031367 0.845102 0.112039 0 255 0
0.194580 -0.371881 -0.497674 76 153 0
-0.348690 0.706939 -0.404907 76 153 0
-0.528832 -0.596246 0.019034 76 153 0
0.442948 0.218942 0.236458 76 0 153
-0.059513 0.753912 -0.436607 0 255 0
-0.462008 0.348359 -0.214436 76 0 153
-0.108065 -0.669450 0.413686 204 51 127
-0.402072 -0.856392 0.297793 153 0 76
0.221830 0.845102 0.061660 0 255 0
0.106440 0.753912 0.035640 0 255 0
-0.427184 -0.669450 0.147599 204 51 127
0.479130 -0.856117 -0.208444 153 0 76
-0.416355 -0.094079 0.321017 76 153 0
0.322170 0.845102 -0.397201 0 255 0
-0.389478 -0.148260 -0.364732 76 153 0
-0.167045 0.845102 0.116630 0 255 0
0.056923 0.753912 -0.152678 0 255 0
0.116759 0.123655 -0.498051 76 0 153
0.123883 -0.477833 -0.496232 76 0 153
-0.444468 -0.005353 0.237483 76 0 153
-0.199200 0.845102 0.268790 0 255 0
-0.471853 0.709449 -0.245692 0 255 0
0.490431 -0.262500 -0.125443 76 0 153
-0.288415 0.089158 0.409982 76 0 153
0.232487 0.845102 -0.110569 0 255 0
0.062731 0.215974 0.495492 76 0 153
0.505215 -0.589780 0.145889 76 153 0
-0.498710 -0.650866 -0.098040 76 0 153
-0.154821 0.693972 -0.512191 76 153 0
-0.207717 -0.669450 -0.225227 204 51 127
-0.526038 0.538043 -0.068128 76 153 0
-0.041580 -0.069326 -0.533431 76 153 0
0.171960 0.753912 0.173874 0 255 0
-0.371230 -0.783134 -0.207315 153 0 76
-0.505576 -0.186883 -0.041380 76 0 153
-0.022428 0.323093 -0.511604 76 0 153
0.358157 0.458206 0.350301 76 0 153
0.381768 0.614044 -0.370946 76 153 0
-0.321738 -0.669450 0.367526 204 51 127
-0.182888 0.845102 -0.134188 0 255 0
-0.442060 -0.135776 -0.254222 76 0 153
0.313344 -0.669450 0.248053 204 51 127
0.144391 0.753912 0.378682 0 255 0
-0.242853 0.834105 -0.465241 0 255 0
0.492224 -0.196983 0.184137 76 153 0
0.225407 0.038046 0.471314 76 153 0
-0.490746 -0.545781 -0.205747 76 153 0
-0.505959 -0.422342 -0.033552 76 0 153
-0.448219 0.532622 0.230688 76 0 153
-0.449836 0.514853 -0.286128 76 153 0
0.121729 -0.752744 0.507974 153 0 76
-0.052606 0.753912 -0.266317 0 255 0
0.455255 -0.128208 -0.272885 76 153 0
0.370201 -0.746254 0.370135 153 0 76
0.405644 0.727241 -0.321077 0 255 0
0.407261 -0.250657 0.329802 76 153 0
0.362031 0.845102 0.087975 0 255 0
-0.142220 0.097040 0.479561 76 0 153
0.370930 -0.669450 0.049848 204 51 127
-0.494780 -0.305539 0.103741 76 0 153
0.472853 0.164304 -0.240494 76 153 0
-0.400230 0.845102 0.233453 0 255 0
0.187552 -0.608983 0.463178 76 0 153
0.078820 0.621490 0.516213 76 153 0
-0.266448 -0.856083 0.442240 153 0 76
-0.360170 -0.771869 0.097385 153 0 76
-0.202614 -0.532676 0.457565 76 0 153
0.227228 -0.391773 0.470288 76 153 0
0.387928 0.753912 0.197650 0 255 0
-0.023487 0.173633 -0.511497 76 0 153
-0.338702 0.703418 0.369955 76 0 153
-0.427830 0.074310 -0.277983 76 0 153
0.425994 -0.723811 -0.318178 153 0 76
-0.307075 -0.669450 0.250610 204 51 127
-0.025858 0.845102 -0.070979 0 255 0
-0.313420 -0.743908 -0.433007 153 0 76
-0.524002 0.166853 0.071239 76 153 0
0.455064 0.526632 -0.224982 76 0 153
0.251328 -0.856392 0.082616 153 0 76
0.005142 -0.856392 -0.408179 153 0 76
0.143452 0.753912 -0.407792 0 255 0
-0.092830 -0.467233 0.514433 76 153 0
0.283778 -0.370554 -0.424519 76 0 153
0.504874 -0.592263 0.000236 76 0 153
-0.077998 -0.669450 -0.403829 204 51 127
-0.178866 0.845102 0.423665 0 255 0
0.181125 0.401115 0.490045 76 153 0
0.395653 -0.480274 0.307495 76 0 153
-0.526800 0.049114 0.049115 76 153 0
-0.398207 -0.474369 -0.354800 76 153 0
-0.059591 -0.366487 -0.531711 76 153 0
0.167340 0.845102 0.243189 0 255 0
-0.422075 0.834227 -0.309040 0 255 0
0.459253 -0.617439 -0.215711 76 0 153
0.260241 -0.669450 0.021205 204 51 127
0.490283 0.229551 0.113248 76 0 153
0.061480 -0.856392 0.180254 153 0 76
0.377479 -0.067371 0.329022 76 0 153
0.135422 -0.856392 -0.189202 153 0 76
0.498361 -0.741442 0.166968 153 0 76
0.017157 0.542438 -0.511760 76 0 153
-0.320075 0.373440 -0.399332 76 0 153
0.283744 0.124732 -0.424569 76 0 153
-0.257769 -0.318824 -0.441993 76 0 153
-0.323928 -0.856392 -0.334493 153 0 76
-0.506118 0.359336 -0.032014 76 0 153
0.087715 0.845102 -0.360430 0 255 0
0.300196 0.845102 -0.203969 0 255 0
-0.141805 0.753912 0.057103 0 255 0
-0.035203 -0.745656 -0.534057 153 0 76
0.252639 -0.856392 0.265002 153 0 76
-0.517362 -0.721854 0.108272 153 0 76
-0.198506 0.552628 -0.496910 76 153 0
0.526755 -0.208967 -0.034841 76 153 0
0.089153 -0.669450 -0.266655 204 51 127
-0.160762 0.016657 -0.510307 76 0 153
0.085000 -0.669450 0.275509 204 51 127
0.520071 0.012385 -0.095625 76 153 0
0.519119 0.384454 0.089021 76 153 0
0.058374 -0.126123 0.519024 76 153 0
-0.515191 0.834196 0.061838 0 255 0
-0.214829 -0.856392 -0.351193 153 0 76
-0.422057 -0.743419 0.313682 153 0 76
0.039989 0.845102 0.026590 0 255 0
-0.528681 0.595134 0.025991 76 153 0
-0.193916 -0.679852 -0.490707 204 51 127
0.260263 -0.856392 -0.136043 153 0 76
-0.060975 -0.856392 0.159674 153 0 76
-0.108739 -0.020380 0.511348 76 153 0
-0.468482 -0.236619 0.188019 76 0 153
-0.287107 -0.449140 0.410933 76 0 153
0.483664 0.429204 0.204494 76 153 0
-0.212291 0.753912 0.156089 0 255 0
0.497363 0.361695 -0.093244 76 0 153
-0.314762 -0.515236 -0.431386 76 153 0
0.032264 0.753912 0.116037 0 255 0
-0.278780 0.845102 -0.012608 0 255 0
-0.009395 -0.669450 0.107408 204 51 127
-0.363992 -0.669450 -0.163477 204 51 127
-0.215407 -0.152404 -0.489439 76 153 0
-0.360000 -0.856392 -0.120884 153 0 76
0.296761 0.753912 -0.300292 0 255 0
0.246100 0.845102 0.338527 0 255 0
0.162960 0.753912 -0.128980 0 255 0
0.169067 -0.849605 0.493979 153 0 76
0.484748 0.578320 0.202137 76 153 0
-0.387390 -0.363161 -0.333066 76 0 153
0.146006 -0.078977 -0.490736 76 0 153
-0.505920 -0.447293 -0.162728 76 153 0
0.468832 0.777092 -0.249091 0 255 0
0.421542 -0.475335 -0.323465 76 153 0
-0.045729 -0.849900 0.520151 153 0 76
0.131691 0.332345 -0.494454 76 0 153
0.065060 -0.856392 -0.028715 153 0 76
-0.386294 -0.514729 0.355272 76 153 0
-0.496434 -0.098488 -0.109163 76 0 153
0.057715 -0.856392 0.392684 153 0 76
-0.230352 -0.421373 -0.457173 76 153 0
-0.472678 -0.449063 0.176329 76 0 153
0.175010 0.753912 -0.297568 0 255 0
-0.081274 -0.856392 -0.007659 153 0 76
0.396387 0.295314 -0.319360 76 0 153
-0.289443 0.165063 -0.422017 76 0 153
-0.022967 0.590074 0.521843 76 153 0
0.483530 0.739140 0.139675 76 0 153
-0.291963 0.845102 0.320961 0 255 0
-0.114203 -0.856392 0.283482 153 0 76
-0.015895 -0.577849 -0.534616 76 153 0
0.456760 0.390749 -0.221369 76 0 153
0.400510 0.593005 0.337687 76 153 0
0.168927 -0.669450 -0.367395 204 51 127
0.497389 -0.386645 0.080059 76 0 153
0.343885 -0.856392 -0.248043 153 0 76
0.110292 -0.836668 -0.523121 153 0 76
-0.440089 0.753912 0.000468 0 255 0
-0.011130 -0.669450 0.213323 204 51 127
0.420989 0.845102 -0.148942 0 255 0
0.236893 -0.669450 -0.166654 204 51 127
-0.270557 0.753912 -0.197655 0 255 0
-0.022058 0.845102 0.221913 0 255 0
0.367417 0.050097 0.340129 76 0 153
-0.122185 0.845102 -0.245327 0 255 0
-0.269894 -0.344845 0.422114 76 0 153
-0.500406 0.318429 0.166850 76 153 0
-0.196640 -0.669450 0.209837 204 51 127
0.160978 -0.856392 -0.321944 153 0 76
-0.026172 -0.856392 -0.217475 153 0 76
-0.107167 -0.669450 0.269775 204 51 127
-0.350461 0.551880 0.390398 76 153 0
-0.318278 -0.106006 -0.429017 76 153 0
-0.146424 0.753912 0.272534 0 255 0
0.290553 0.273087 -0.447516 76 153 0
-0.017007 0.774552 -0.534971 0 255 0
0.101425 -0.856392 0.278601 153 0 76
-0.258221 -0.856392 0.103593 153 0 76
0.249040 0.499950 0.459585 76 153 0
-0.494982 0.184954 -0.115343 76 0 153
0.283342 0.753912 -0.117078 0 255 0
0.446148 -0.359058 -0.288310 76 153 0
-0.469867 -0.329022 -0.251160 76 153 0
-0.445103 -0.581109 -0.293511 76 153 0
0.502424 0.703213 -0.057163 76 153 0
0.521033 -0.261221 0.076099 76 153 0
-0.294845 -0.856392 0.272785 153 0 76
-0.035528 -0.269637 0.521128 76 153 0
0.293287 -0.669450 -0.311523 204 51 127
-0.449931 0.845102 -0.106363 0 255 0
0.011034 0.845102 -0.291239 0 255 0
-0.283374 -0.669450 0.015190 204 51 127
0.453760 -0.393766 0.214471 76 0 153
-0.117124 0.126479 -0.498607 76 0 153
-0.254355 0.527709 0.457903 76 153 0
0.438950 0.116435 0.243278 76 0 153
-0.529183 0.225815 -0.026170 76 153 0
0.145876 -0.176689 0.478031 76 0 153
0.010259 -0.669450 -0.482493 204 51 127
0.041001 0.753912 -0.405298 0 255 0
-0.355310 0.235102 -0.367612 76 0 153
0.006828 -0.669450 0.431449 204 51 127
-0.527465 0.022485 -0.056187 76 153 0
-0.502038 -0.741942 -0.153718 153 0 76
0.179345 -0.669450 0.204572 204 51 127
0.408462 -0.856392 0.103401 153 0 76
-0.047872 0.419437 -0.532790 76 153 0
-0.197719 0.284813 -0.472581 76 0 153
-0.424926 0.845102 0.108616 0 255 0
-0.031871 0.247525 0.521358 76 153 0
0.406161 0.753912 -0.073859 0 255 0
-0.158760 0.845102 -0.409367 0 255 0
-0.299299 -0.614901 -0.442624 76 153 0
0.119228 0.753912 0.280664 0 255 0
-0.455357 -0.789178 -0.017653 153 0 76
-0.335528 -0.287246 -0.385552 76 0 153
-0.123796 -0.558890 -0.496906 76 0 153
0.377696 0.117732 -0.375273 76 153 0
0.520119 0.827826 0.056970 0 255 0
-0.336802 -0.288698 0.371833 76 153 0
-0.464058 -0.754904 -0.261631 153 0 76
-0.410405 -0.329081 0.290552 76 0 153
0.322939 0.753912 0.276539 0 255 0
0.421410 -0.026699 -0.284994 76 0 153
0.459813 -0.286979 0.252321 76 153 0
0.416875 -0.669450 -0.138072 204 51 127
0.513385 0.550463 -0.127915 76 153 0
0.308160 0.753912 0.018635 0 255 0
-0.486089 0.745875 -0.150777 0 255 0
0.180647 -0.175530 -0.478427 76 0 153
-0.328169 0.845102 0.083904 0 255 0
0.442831 -0.856392 -0.022333 153 0 76
-0.174502 -0.250998 -0.481249 76 0 153
0.319513 -0.605784 -0.398053 76 0 153
-0.093468 -0.669450 -0.036476 204 51 127
0.277481 0.430499 -0.429049 76 0 153
0.201195 -0.856392 -0.481708 153 0 76
-0.048832 0.753912 0.292841 0 255 0
-0.073361 0.845102 0.413634 0 255 0
-0.337811 -0.187014 0.370918 76 0 153
0.312742 -0.166520 -0.403068 76 0 153
0.260292 -0.856392 -0.025399 153 0 76
0.441762 -0.669450 -0.019308 204 51 127
-0.069472 0.845102 0.017014 0 255 0
0.110858 -0.669450 -0.463333 204 51 127
0.260295 0.763525 -0.465059 0 255 0
0.407332 0.247190 0.329633 76 153 0
-0.498112 0.388105 0.089530 76 0 153
-0.432365 -0.676659 -0.311356 76 153 0
0.403740 0.187120 -0.309424 76 0 153
0.403715 0.538047 -0.309457 76 0 153
-0.124382 -0.363607 0.507519 76 153 0
-0.154073 -0.447321 -0.512384 76 153 0
-0.491489 0.088334 -0.129197 76 0 153
-0.432834 0.370191 0.257045 76 0 153
-0.089775 -0.856392 -0.511091 153 0 76
-0.205748 -0.669450 0.112780 204 51 127
0.045930 0.753912 -0.048069 0 255 0
0.252122 0.845102 0.153833 0 255 0
0.253763 -0.537696 0.456619 76 153 0
-0.416457 -0.856392 -0.306826 153 0 76
0.391113 -0.856392 0.249077 153 0 76
0.182015 -0.555205 -0.502125 76 153 0
0.137516 0.845102 0.010873 0 255 0
0.276406 0.753912 0.365332 0 255 0
0.029814 -0.464886 -0.511069 76 153 0
0.061587 0.753912 0.458891 0 255 0
-0.111506 0.753912 0.383804 0 255 0
-0.494539 0.498786 0.104520 76 0 153
0.474077 -0.639398 0.224974 76 153 0
-0.243186 -0.622692 0.438121 76 0 153
-0.453247 -0.577571 0.220100 76 0 153
-0.319611 0.615464 -0.399724 76 0 153
-0.360170 -0.757246 -0.012191 153 0 76
-0.115342 0.607787 -0.522475 76 153 0
-0.191631 -0.856392 -0.171123 153 0 76
0.560123 0.646913 0.015595 127 0 127
-0.156023 -0.081738 -0.511877 76 153 0
0.096092 -0.560001 0.490385 76 0 153
-0.275128 0.718931 0.438684 76 153 0
0.527639 -0.755776 0.001745 153 0 76
-0.419081 0.173167 -0.291380 76 0 153
0.072124 -0.669450 -0.081678 204 51 127
-0.126490 -0.856392 0.088575 153 0 76
-0.262047 0.753912 -0.311157 0 255 0
-0.505949 0.706091 0.151080 76 153 0
0.091771 -0.453779 0.514271 76 153 0
-0.479987 0.256977 -0.230317 76 153 0
0.104249 0.496134 -0.524524 76 153 0
0.454215 -0.077423 0.213508 76 153 0
-0.370742 -0.679852 -0.382759 76 0 153
0.234217 0.753912 -0.371002 0 255 0
0.073923 0.845102 0.232023 0 255 0
-0.137745 -0.677043 0.504238 76 153 0
-0.019479 -0.602001 0.499005 76 0 153
-0.136958 0.753912 -0.307861 0 255 0
-0.170180 0.753912 -0.040965 0 255 0
-0.473979 -0.235548 -0.242825 76 153 0
-0.308214 -0.006422 0.423820 76 153 0
-0.521958 -0.260285 -0.097580 76 153 0
-0.043300 -0.856392 -0.309718 153 0 76
-0.331312 0.753912 -0.017087 0 255 0
-0.089846 -0.669450 0.059435 204 51 127
0.204424 0.753912 0.073614 0 255 0
-0.002640 -0.669450 -0.284758 204 51 127
-0.503708 -0.512267 0.051368 76 0 153
-0.336305 0.845102 -0.253257 0 255 0
0.510244 -0.777382 -0.141512 153 0 76
0.321251 -0.261893 0.383941 76 0 153
0.027111 -0.762776 0.521735 153 0 76
0.071111 0.047028 0.494154 76 0 153
0.171729 0.708475 -0.505952 76 153 0
-0.473821 0.436097 -0.242921 76 153 0
0.034862 0.425503 0.521220 76 153 0
-0.474681 -0.673788 0.228227 76 153 0
-0.188005 -0.856392 -0.453030 153 0 76
-0.472096 -0.035337 -0.246571 76 153 0
-0.416565 0.709271 0.320038 0 255 0
0.356136 0.476352 -0.365044 76 0 153
-0.109419 0.845102 0.191092 0 255 0
0.023823 0.845102 0.400677 0 255 0
0.299413 0.627180 -0.412983 76 0 153
-0.389603 -0.785508 0.195229 153 0 76
0.034759 0.101479 -0.533912 76 153 0
0.516176 0.051033 0.102921 76 153 0
-0.098148 -0.275421 -0.526235 76 0 153
0.323850 -0.059415 -0.423436 76 153 0
-0.043692 0.753912 -0.172541 0 255 0
-0.068341 0.753912 0.466245 0 255 0
0.483021 -0.281732 -0.218348 76 153 0
0.435391 0.309475 0.249296 76 0 153
0.134897 -0.669450 -0.187239 204 51 127
0.288327 0.845102 -0.300368 0 255 0
0.258811 0.845102 -0.021971 0 255 0
-0.362750 -0.669450 -0.065886 204 51 127
-0.358365 0.845102 -0.084894 0 255 0
0.292389 -0.768996 -0.446221 153 0 76
-0.066994 0.845102 -0.459964 0 255 0
0.085166 0.813829 -0.528156 0 255 0
0.298732 -0.768475 0.429346 153 0 76
0.525238 0.547805 0.043655 76 153 0
-0.301613 0.753912 0.173026 0 255 0
0.516592 -0.348627 -0.113391 76 153 0
-0.453535 0.780172 0.267473 0 255 0
0.221327 -0.669450 0.392596 204 51 127
-0.409161 0.715197 -0.338105 0 255 0
0.385067 -0.556933 0.354283 76 153 0
-0.031807 -0.669450 -0.102612 204 51 127
-0.229706 0.125465 0.470377 76 153 0
-0.146555 -0.856392 0.401002 153 0 76
0.348459 -0.422925 0.359234 76 0 153
0.503409 -0.450790 0.151389 76 153 0
-0.441252 -0.823164 -0.144789 153 0 76
0.485192 0.073184 -0.213920 76 153 0
0.229960 0.845102 -0.437766 0 255 0
-0.243669 0.367527 -0.476233 76 153 0
0.501456 -0.061832 0.052161 76 0 153
0.452152 -0.802175 -0.278633 153 0 76
-0.248950 0.038142 -0.447303 76 0 153
0.213522 0.158160 0.476776 76 153 0
0.358679 -0.801046 -0.393803 153 0 76
-0.388939 0.753912 -0.192161 0 255 0
0.420835 0.417701 0.273334 76 0 153
0.329684 0.351387 0.376274 76 0 153
-0.270698 0.728443 -0.442792 0 255 0
-0.176636 0.466220 -0.504967 76 153 0
0.121167 0.753912 -0.226663 0 255 0
0.114012 0.845102 0.419075 0 255 0
-0.093329 0.845102 -0.135489 0 255 0
-0.018698 -0.160671 -0.534635 76 153 0
0.475366 0.767368 0.223352 0 255 0
0.509296 -0.472942 -0.144273 76 153 0
0.508331 -0.648383 -0.148154 76 153 0
-0.385675 0.322326 -0.369124 76 153 0
-0.375867 0.374092 0.333030 76 0 153
-0.398373 0.043425 -0.355013 76 153 0
-0.203439 0.632782 0.481981 76 153 0
-0.181684 -0.669450 -0.314905 204 51 127
-0.159661 0.325431 0.498026 76 153 0
-0.008608 0.785406 0.522489 0 255 0
0.468422 0.047820 0.182738 76 0 153
0.346168 0.845102 0.315292 0 255 0
-0.002225 0.845102 -0.379144 0 255 0
-0.098977 0.680630 0.513096 76 153 0
0.280335 0.319692 0.441344 76 153 0
0.400679 -0.187801 -0.349947 76 153 0
0.045869 0.753912 0.328533 0 255 0
-0.396185 0.845102 -0.189370 0 255 0
0.236224 0.554439 -0.453354 76 0 153
0.320400 -0.856392 -0.333319 153 0 76
-0.248208 0.845102 -0.368251 0 255 0
-0.272612 0.550423 -0.433271 76 0 153
0.136926 0.845102 -0.437072 0 255 0
-0.208260 -0.324355 0.479916 76 153 0
-0.442667 -0.744283 0.070035 153 0 76
-0.526721 0.438033 -0.062243 76 153 0
0.057499 0.845102 -0.156829 0 255 0
-0.239643 -0.778018 -0.478342 153 0 76
-0.310740 -0.856392 0.363043 153 0 76
0.045534 0.636501 -0.532905 76 153 0
0.249519 -0.856392 0.351546 153 0 76
-0.129845 -0.177201 0.506317 76 153 0
0.262116 -0.669450 -0.083105 204 51 127
0.503162 0.093540 -0.047031 76 0 153
0.289597 -0.098295 0.407654 76 0 153
-0.159225 -0.770038 0.498196 153 0 76
0.136812 -0.284071 0.504047 76 153 0
0.262078 0.789608 0.452465 0 255 0
-0.455863 -0.195810 0.262785 76 153 0
-0.381471 0.753912 0.226079 0 255 0
0.421527 -0.554447 0.272313 76 0 153
0.257585 0.753912 0.206847 0 255 0
0.388139 0.799163 -0.364433 0 255 0
-0.430892 -0.408025 0.260045 76 0 153
-0.214180 0.201059 -0.464945 76 0 153
0.481768 -0.121590 0.145245 76 0 153
-0.054108 -0.669450 -0.205687 204 51 127
0.390245 -0.307696 -0.327517 76 0 153
-0.115899 0.508359 0.509866 76 153 0
-0.198380 -0.218528 0.459565 76 0 153
-0.227683 0.845102 0.056522 0 255 0
0.209104 0.845102 -0.192586 0 255 0
0.436790 0.845102 0.040924 0 255 0
-0.273022 -0.856392 -0.015538 153 0 76
-0.184004 -0.669450 -0.071016 204 51 127
0.479481 0.318576 -0.164275 76 0 153
0.409520 0.845102 0.218686 0 255 0
0.043534 -0.318509 0.520614 76 153 0
0.490467 -0.068473 -0.125300 76 0 153
0.265001 -0.454432 0.423708 76 0 153
-0.213941 -0.856392 0.248008 153 0 76
-0.298256 -0.728632 0.431052 153 0 76
0.135390 0.753912 -0.047772 0 255 0
-0.226258 0.794927 0.472207 0 255 0
-0.496834 -0.641046 0.095511 76 0 153
0.239004 -0.038760 0.439351 76 0 153
0.483568 0.697196 -0.217979 76 153 0
0.143946 -0.671853 0.502289 76 153 0
0.502579 0.499782 -0.056522 76 0 153
0.147719 0.205107 0.501112 76 153 0
0.523205 0.173041 -0.074577 76 153 0
0.001409 0.321498 0.499797 76 153 0
-0.370662 -0.057959 -0.384489 76 153 0
-0.466217 -0.669450 -0.016542 204 51 127
-0.478675 0.610113 0.220699 76 153 0
0.307057 0.651552 0.394737 76 0 153
0.279493 0.212557 0.441820 76 153 0
-0.529427 -0.823164 0.000281 153 0 76
0.381837 0.753912 0.114435 0 255 0
-0.265537 -0.156725 0.424725 76 0 153
-0.196456 0.753912 -0.471967 0 255 0
0.340132 -0.669450 0.326917 204 51 127
0.259032 -0.022526 -0.466524 76 153 0
0.058738 0.133598 0.519078 76 153 0
-0.407105 0.104658 0.332487 76 153 0
-0.003865 -0.182026 0.522534 76 153 0
-0.050585 0.753912 -0.353998 0 255 0
0.254482 -0.669450 -0.386502 204 51 127
-0.333624 0.227347 0.404871 76 153 0
-0.491466 0.364778 -0.129884 76 0 153
0.000864 0.845102 0.301372 0 255 0
-0.257662 0.845102 -0.098892 0 255 0
-0.490876 0.511328 -0.205210 76 153 0
-0.484920 0.663347 -0.154053 76 0 153
0.131375 0.823135 0.505704 0 255 0
0.415293 0.730346 0.285984 0 255 0
-0.422453 0.349995 -0.286688 76 0 153
0.526923 -0.518310 -0.028576 76 153 0
0.519872 -0.768841 0.084401 153 0 76
0.162360 0.256578 -0.485026 76 0 153
-0.496739 -0.113462 -0.190010 76 153 0
-0.048207 0.753912 0.099862 0 255 0
-0.239389 -0.074210 0.440185 76 0 153
0.403423 -0.669450 -0.256881 204 51 127
-0.373597 -0.594448 0.369023 76 153 0
0.524927 0.783788 -0.061644 0 255 0
0.526929 -0.426222 0.014463 76 153 0
-0.195717 0.262146 0.460773 76 0 153
-0.226294 0.753912 0.236629 0 255 0
-0.513590 0.728604 -0.024768 0 255 0
-0.358422 -0.856392 0.096970 153 0 76
-0.215380 0.845102 0.349421 0 255 0
-0.171318 0.753912 -0.122630 0 255 0
-0.365697 -0.856392 -0.242880 153 0 76
0.182618 -0.674571 -0.501865 204 51 127
0.306882 -0.447996 -0.435637 76 153 0
0.369762 -0.648377 -0.350073 76 0 153
-0.424060 -0.856392 0.215863 153 0 76
-0.457750 0.753912 0.092617 0 255 0
0.149264 0.845102 -0.137361 0 255 0
0.024091 0.753912 -0.227192 0 255 0
-0.390967 0.246913 0.350492 76 153 0
-0.350638 -0.821518 -0.402916 153 0 76
0.379033 0.770012 0.361441 0 255 0
-0.064749 0.046043 0.495413 76 0 153
0.344869 0.183950 0.393441 76 153 0
-0.322388 0.753912 -0.135156 0 255 0
0.042802 -0.063245 -0.533314 76 153 0
0.067053 -0.669450 0.077339 204 51 127
-0.108066 0.420620 0.488040 76 0 153
0.197680 0.120911 -0.496348 76 153 0
-0.524598 -0.347724 -0.078265 76 153 0
-0.035625 -0.856392 -0.094596 153 0 76
0.398334 0.013861 -0.352700 76 153 0
-0.163297 0.845102 -0.319979 0 255 0
0.165577 0.845102 0.340286 0 255 0
0.153685 0.409288 -0.487954 76 0 153
0.517977 0.304380 0.094394 76 153 0
-0.466675 0.845102 -0.004470 0 255 0
-0.230946 0.845102 -0.202104 0 255 0
0.276064 -0.207140 0.443758 76 153 0
0.461199 -0.433360 -0.262451 76 153 0
0.163952 0.322606 0.496008 76 153 0
0.438086 0.365342 -0.300845 76 153 0
-0.483935 0.069819 -0.221425 76 153 0
0.176518 0.481459 0.491782 76 153 0
-0.326434 0.454353 -0.393741 76 0 153
0.150240 0.039844 0.500326 76 153 0
0.355675 -0.856392 -0.062966 153 0 76
-0.383065 -0.669450 0.213774 204 51 127
0.363401 0.753912 -0.251243 0 255 0
0.316584 0.473124 0.416362 76 153 0
0.361507 -0.328804 0.346656 76 0 153
-0.503113 -0.112872 0.055319 76 0 153
-0.507262 -0.373107 0.146205 76 153 0
0.458702 -0.184354 -0.216872 76 0 153
0.499985 0.200051 -0.175075 76 153 0
0.193713 0.666731 0.460569 76 0 153
-0.095769 0.753912 -0.013751 0 255 0
0.052871 0.336119 -0.532290 76 153 0
0.280883 -0.560572 -0.453473 76 153 0
-0.386149 0.788308 -0.368793 0 255 0
0.440500 -0.700245 0.262720 204 51 127
0.483963 -0.669251 0.138258 204 51 127
0.114042 0.753912 0.120152 0 255 0
-0.363872 0.629042 0.378339 76 0 153
-0.405812 0.524430 0.296791 76 0 153
0.264048 -0.622990 0.450580 76 153 0
-0.284951 0.282202 0.439873 76 153 0
0.429947 0.582301 0.258372 76 0 153
-0.131910 -0.089573 0.482086 76 0 153
0.033226 0.540452 0.498358 76 0 153
-0.453944 0.071231 0.218678 76 0 153
-0.502802 -0.615517 -0.171746 76 0 153
0.058143 -0.216464 -0.508739 76 0 153
-0.428317 -0.558931 0.304325 76 153 0
0.455274 -0.856392 -0.127748 153 0 76
-0.487165 -0.127514 0.134253 76 0 153
-0.497494 -0.000787 0.175117 76 153 0
-0.445093 -0.745363 0.154247 153 0 76
0.105732 0.428804 0.488145 76 0 153
-0.377734 0.753912 0.047634 0 255 0
0.057165 -0.856392 -0.469402 153 0 76
0.527712 -0.673644 -0.009779 204 51 127
-0.461190 -0.278215 0.253575 76 153 0
-0.280634 -0.669450 -0.197637 204 51 127
-0.528708 -0.231578 0.023118 76 153 0
-0.231258 -0.612018 -0.481984 76 0 153
-0.030632 0.248995 -0.534152 76 153 0
0.070430 0.700570 0.517594 76 153 0
-0.346528 -0.042447 0.363023 76 153 0
0.389616 -0.141384 0.349448 76 153 0
-0.098525 0.329272 -0.526158 76 153 0
-0.160772 -0.669450 -0.416336 204 51 127
-0.389656 0.552696 -0.330383 76 0 153
0.255478 -0.856392 0.167410 153 0 76
-0.412572 -0.444892 0.325847 76 153 0
-0.518557 0.599594 -0.114813 76 153 0
-0.243890 0.417479 0.437513 76 0 153
0.299415 0.060656 0.400375 76 0 153
-0.303133 -0.669450 -0.346240 204 51 127
-0.088597 -0.014891 -0.504502 76 0 153
-0.181794 -0.614831 0.490204 76 153 0
-0.099779 0.749886 -0.502701 0 255 0
0.000615 -0.001680 -0.512498 76 0 153
-0.444747 0.218210 0.236949 76 0 153
0.250171 0.845102 0.261208 0 255 0
0.169939 -0.669450 0.127731 204 51 127
-0.523482 -0.735653 -0.079603 153 0 76
0.143828 0.053138 -0.514933 76 153 0
0.464533 -0.091302 -0.204594 76 0 153
0.195370 -0.856392 -0.391193 153 0 76
0.476328 0.753912 0.063468 0 255 0
-0.303612 0.088561 -0.411493 76 0 153
-0.211981 -0.856392 -0.274210 153 0 76
0.054521 0.174201 -0.509283 76 0 153
-0.420903 -0.507666 -0.288904 76 0 153
0.329212 -0.856392 0.095172 153 0 76
0.033116 0.845102 0.155811 0 255 0
-0.230966 -0.793713 0.469746 153 0 76
0.496372 0.156455 0.087265 76 0 153
-0.444073 -0.823164 0.149530 153 0 76
0.328740 0.845102 0.009357 0 255 0
-0.460733 0.781945 -0.267781 0 255 0
0.281693 0.052646 -0.453153 76 153 0
0.471560 0.598434 -0.187124 76 0 153
0.191276 -0.669450 -0.012002 204 51 127
-0.463365 0.625099 -0.262874 76 153 0
-0.027822 0.845102 0.478752 0 255 0
-0.387610 -0.823164 -0.051618 153 0 76
0.186327 -0.298957 -0.476404 76 0 153
0.063464 -0.856392 -0.216078 153 0 76
0.331928 0.753912 -0.056031 0 255 0
-0.128031 -0.717909 -0.517849 204 51 127
-0.482267 -0.266187 -0.162402 76 0 153
0.015617 -0.439199 0.521914 76 153 0
-0.373921 0.481332 0.368488 76 153 0
-0.037469 0.595792 -0.533517 76 153 0
-0.494129 0.493148 0.184792 76 153 0
-0.189140 0.552138 0.487918 76 153 0
0.471757 0.839917 -0.205031 0 255 0
-0.513215 0.818510 -0.138310 0 255 0
0.406559 -0.814625 0.330472 153 0 76
-0.423200 0.189320 0.311931 76 153 0
0.175418 -0.856392 0.262875 153 0 76
-0.183034 -0.856392 -0.055421 153 0 76
0.108547 -0.856392 0.448665 153 0 76
0.523567 -0.621819 -0.069738 76 153 0
0.256809 -0.702914 -0.454643 204 51 127
0.498520 -0.570592 0.072298 76 0 153
0.177875 0.845102 0.168410 0 255 0
0.496231 -0.185546 -0.099776 76 0 153
-0.427645 -0.669450 -0.115287 204 51 127
-0.529494 -0.495032 -0.017394 76 153 0
-0.486937 0.147531 0.135344 76 0 153
-0.499868 0.642405 0.078506 76 0 153
0.525152 0.221379 0.046960 76 153 0
0.066103 -0.289679 -0.530569 76 153 0
0.188773 0.777382 0.487299 0 255 0
0.504317 0.229471 -0.025130 76 0 153
0.308953 -0.297309 -0.434197 76 153 0
0.051306 -0.533702 -0.532504 76 153 0
0.485253 0.845102 -0.110074 0 255 0
-0.099948 0.845102 -0.058757 0 255 0
0.466113 -0.845105 0.240841 153 0 76
-0.125513 0.753912 -0.396591 0 255 0
0.187085 0.845102 -0.050850 0 255 0
0.495682 0.666414 0.174466 76 153 0
0.409589 0.652279 0.288647 76 0 153
-0.355532 -0.217513 -0.367387 76 0 153
-0.289723 0.753912 0.344661 0 255 0
0.502753 0.686747 0.042107 76 0 153
0.504155 0.363196 0.016666 76 0 153
0.200523 0.845102 -0.266710 0 255 0
0.075393 -0.669450 0.002285 204 51 127
0.253453 -0.332560 0.430657 76 0 153
-0.089195 0.152450 0.491878 76 0 153
-0.128422 -0.669450 -0.212058 204 51 127
0.486701 0.567708 0.128398 76 0 153
-0.008644 0.753912 -0.106777 0 255 0
-0.528804 -0.372225 0.020463 76 153 0
-0.208290 0.845102 0.178671 0 255 0
0.255689 0.598903 0.429297 76 0 153
-0.424248 -0.746211 -0.170423 153 0 76
0.446519 -0.436371 0.274970 76 153 0
-0.198403 -0.669450 -0.143922 204 51 127
0.082671 -0.856392 0.109077 153 0 76
-0.260208 -0.856392 0.182478 153 0 76
-0.332332 0.769264 0.405940 0 255 0
0.158306 -0.423970 0.473602 76 0 153
-0.002768 -0.679852 0.515377 76 153 0
0.501915 0.464282 0.048600 76 0 153
0.337564 0.289576 -0.381887 76 0 153
0.372109 0.531049 0.368200 76 153 0
-0.003851 -0.082903 0.522515 76 153 0
0.225456 -0.798481 0.471532 153 0 76
0.013073 -0.856392 0.454562 153 0 76
0.440838 0.753912 -0.139628 0 255 0
0.470541 0.510205 0.177279 76 0 153
0.468186 0.753912 -0.015945 0 255 0
-0.047964 -0.856392 0.337258 153 0 76
-0.302174 0.373279 0.428319 76 153 0
-0.145320 -0.521018 0.502467 76 153 0
-0.124650 -0.669450 0.341386 204 51 127
-0.453083 0.301464 0.220751 76 0 153
0.419552 -0.856392 0.181080 153 0 76
0.337978 0.114878 0.368762 76 0 153
0.103612 0.753912 0.201349 0 255 0
0.318011 -0.571995 0.386568 76 0 153
-0.318687 0.156172 0.416275 76 153 0
-0.058316 -0.669450 0.467921 204 51 127
-0.527739 -0.592949 -0.054478 76 153 0
0.305538 0.201898 -0.436889 76 153 0
0.006443 0.473432 -0.534751 76 153 0
0.109487 0.273993 0.487332 76 0 153
-0.358660 0.079348 0.382925 76 153 0
0.429754 -0.216406 0.258585 76 0 153
0.270417 -0.186010 -0.459790 76 0 153
-0.504835 -0.023580 0.042271 76 0 153
0.115425 -0.339770 -0.498333 76 0 153
-0.441002 0.753912 0.177940 0 255 0
-0.193247 0.628843 -0.499043 76 153 0
-0.314043 0.791327 -0.432669 0 255 0
-0.269350 -0.679852 -0.458922 204 51 127
0.525477 0.090267 0.041660 76 153 0
0.340117 0.845102 -0.138894 0 255 0
0.456255 -0.567054 0.209191 76 0 153
-0.322714 0.845102 0.254622 0 255 0
-0.438622 -0.190007 -0.303140 76 153 0
0.428124 -0.530193 -0.273835 76 0 153
-0.445245 -0.383505 -0.293389 76 0 153
-0.324217 0.753912 -0.349457 0 255 0
-0.224721 -0.669450 0.384055 204 51 127
-0.391887 -0.677111 0.348982 76 153 0
0.056342 -0.042714 0.496371 76 0 153
-0.061334 -0.856392 -0.443969 153 0 76
0.469052 0.459075 -0.248328 76 153 0
0.347410 -0.812088 0.391306 153 0 76
0.308523 -0.669450 -0.139191 204 51 127
0.070275 -0.856392 -0.360549 153 0 76
0.191014 -0.329300 0.486391 76 153 0
-0.506790 0.662497 0.004808 76 0 153
-0.055236 -0.538741 0.496796 76 0 153
-0.184483 0.182020 0.489468 76 153 0
-0.416646 0.053230 0.282149 76 0 153
0.157971 -0.100512 0.473721 76 0 153
-0.487308 -0.399035 -0.213471 76 153 0
-0.102697 -0.856392 -0.180478 153 0 76
0.428267 0.075522 0.302055 76 153 0
-0.466801 0.753912 -0.073887 0 255 0
-0.373463 0.845102 0.166273 0 255 0
0.439580 -0.053271 0.286032 76 0 153
-0.219408 0.753912 0.012395 0 255 0
0.156095 0.188681 -0.511084 76 153 0
0.351938 0.845102 0.160617 0 255 0
-0.488435 -0.516054 0.198157 76 153 0
0.209679 0.753912 0.417982 0 255 0
-0.161072 0.182837 -0.510273 76 153 0
-0.511879 -0.487659 0.129631 76 153 0
0.250368 -0.856392 -0.316270 153 0 76
0.491834 0.233985 0.185060 76 153 0
0.101450 -0.856392 -0.102470 153 0 76
0.241105 -0.669450 0.241231 204 51 127
-0.009523 -0.856392 -0.010649 153 0 76
-0.461764 -0.073322 0.252790 76 153 0
0.523814 -0.779135 -0.071081 153 0 76
0.159629 0.638798 -0.485813 76 0 153
0.184401 -0.444532 -0.477090 76 153 0
-0.506678 0.529578 0.007290 76 0 153
-0.502349 -0.670807 0.160358 76 153 0
-0.362040 -0.669450 0.098242 204 51 127
0.349632 -0.669450 0.117978 204 51 127
-0.064387 -0.209644 0.495461 76 0 153
-0.246498 -0.669450 -0.285123 204 51 127
0.184712 0.565985 -0.501312 76 153 0
-0.109296 -0.856392 0.212354 153 0 76
0.114609 -0.409763 -0.521909 76 153 0
0.195784 -0.856392 0.004952 153 0 76
-0.009455 -0.319888 -0.512155 76 0 153
-0.396126 -0.669450 -0.247037 204 51 127
0.378314 0.391512 -0.340661 76 0 153
0.419205 0.845102 -0.072093 0 255 0
-0.406908 -0.022789 0.295265 76 0 153
0.414843 -0.856392 -0.249058 153 0 76
-0.412301 -0.823164 0.042859 153 0 76
-0.241909 -0.249442 -0.451537 76 0 153
0.474807 -0.553440 -0.177147 76 0 153
0.195438 -0.856392 0.428500 153 0 76
-0.100071 0.284945 0.512979 76 153 0
0.481708 -0.517983 0.145416 76 0 153
-0.512052 -0.238227 0.129372 76 153 0
0.261269 0.845102 0.408511 0 255 0
0.432348 0.793734 -0.309437 0 255 0
0.028141 -0.784533 -0.534357 153 0 76
0.134173 -0.669450 0.328441 204 51 127
-0.491646 0.266005 0.116654 76 0 153
0.400845 0.657250 -0.313315 76 0 153
0.286312 0.359760 -0.422624 76 0 153
-0.157792 0.788364 0.498802 0 255 0
0.485897 0.430321 0.131336 76 0 153
0.503334 -0.208180 0.031700 76 0 153
-0.097255 0.845102 0.081841 0 255 0
0.437780 -0.669450 0.084982 204 51 127
0.375973 0.544082 -0.377051 76 0 153
-0.034692 0.753912 0.180568 0 255 0
-0.505339 0.288478 -0.047568 76 0 153
-0.357378 -0.457364 0.383733 76 153 0
-0.168784 0.389722 0.470862 76 0 153
0.442013 0.244492 -0.294899 76 153 0
-0.094254 -0.799521 0.514185 153 0 76
-0.499369 -0.458173 -0.093524 76 0 153
-0.446349 -0.805385 0.278881 153 0 76
-0.425451 -0.101647 -0.321251 76 153 0
-0.397316 -0.162390 0.343232 76 153 0
-0.460702 -0.740711 0.255293 204 51 127
-0.034178 0.407209 0.521244 76 153 0
-0.490885 0.537908 -0.132525 76 0 153
0.188595 -0.025678 -0.475596 76 0 153
0.384829 0.845102 -0.208674 0 255 0
-0.437326 0.445666 0.249446 76 0 153
0.281827 -0.700808 0.426656 204 51 127
0.002740 0.063130 0.499728 76 0 153
0.526998 -0.024592 -0.030958 76 153 0
-0.486103 0.131196 0.203712 76 153 0
-0.129189 0.845102 0.260750 0 255 0
-0.146376 0.845102 0.358562 0 255 0
0.122440 -0.183681 -0.520113 76 153 0
0.498935 0.435536 -0.083024 76 0 153
-0.505027 0.238703 -0.165769 76 153 0
-0.244082 -0.473488 0.463397 76 0 153
0.482962 -0.251471 0.141894 76 0 153
-0.520350 -0.032390 -0.105957 76 153 0
-0.113206 0.441047 -0.522941 76 153 0
0.009866 0.753912 -0.467431 0 255 0
-0.263902 -0.148247 -0.438303 76 0 153
0.288279 0.845102 0.094600 0 255 0
-0.277031 -0.669450 0.314505 204 51 127
0.325079 0.717878 0.403423 76 153 0
-0.208091 0.753912 -0.263348 0 255 0
0.254370 0.488744 -0.469228 76 153 0
0.064487 -0.856392 0.040524 153 0 76
-0.528299 0.352078 0.034313 76 153 0
0.527608 -0.140368 -0.000631 76 153 0
0.059313 0.845102 -0.226002 0 255 0
0.213612 -0.190696 0.476577 76 0 153
0.225868 0.349880 0.471247 76 153 0
-0.360170 -0.784074 -0.125954 153 0 76
-0.388643 0.472961 -0.366012 76 153 0
0.505216 0.382475 -0.158615 76 153 0
-0.066125 -0.213371 -0.530870 76 153 0
0.380175 -0.575760 -0.372398 76 0 153
-0.114938 -0.391466 -0.499117 76 0 153
0.374942 0.686648 -0.378125 76 0 153
0.253625 -0.420420 -0.469454 76 153 0
-0.294425 -0.856392 -0.162572 153 0 76
0.137445 0.632555 0.480530 76 0 153
0.228762 0.274331 -0.482381 76 153 0
0.415913 -0.731230 0.318864 204 51 127
0.144367 0.555475 0.478356 76 0 153
0.034458 -0.630624 -0.533668 76 153 0
0.304665 0.753912 -0.215734 0 255 0
0.321063 -0.856392 0.259662 153 0 76
0.513053 0.797082 0.117883 0 255 0
-0.152610 0.031115 0.500332 76 153 0
0.270343 -0.669450 0.310606 204 51 127
-0.031401 -0.427479 -0.511046 76 0 153
0.387195 -0.669450 0.232685 204 51 127
0.168894 -0.669450 0.436962 204 51 127
-0.469781 0.830658 0.223763 0 255 0
0.140142 -0.775599 -0.515547 153 0 76
-0.520325 0.101100 0.093068 76 153 0
-0.342581 0.845102 0.366939 0 255 0
-0.207545 0.753912 0.087886 0 255 0
-0.325727 -0.382586 0.410811 76 153 0
-0.491486 -0.070056 0.191359 76 153 0
0.503035 -0.373490 -0.049099 76 0 153
-0.028831 -0.669450 -0.356506 204 51 127
-0.282726 -0.454472 -0.426976 76 0 153
0.108302 0.662825 -0.523603 76 153 0
0.508818 0.717833 -0.126113 76 153 0
0.480425 0.167237 0.211611 76 153 0
-0.448525 0.637166 0.275237 76 153 0
-0.166404 -0.610602 -0.508120 76 153 0
0.404027 -0.410850 -0.308996 76 0 153
0.261479 0.692500 -0.438538 76 0 153
0.443289 0.030542 -0.248633 76 0 153
-0.100985 -0.856392 0.455336 153 0 76
0.139541 -0.856392 -0.257613 153 0 76
-0.378264 -0.850257 0.363627 153 0 76
0.083446 -0.669450 0.456891 204 51 127
-0.113415 0.753912 -0.164485 0 255 0
-0.187543 0.753912 0.423814 0 255 0
0.295428 -0.856392 -0.193910 153 0 76
-0.326389 -0.856392 -0.062164 153 0 76
-0.301572 -0.033878 -0.441208 76 153 0
0.334561 0.781128 -0.415111 0 255 0
-0.505661 0.119708 0.026559 76 0 153
-0.492651 0.029066 0.112272 76 0 153
0.524419 0.297767 -0.066068 76 153 0
-0.511001 0.773186 0.025681 0 255 0
-0.147200 -0.450670 0.478288 76 0 153
0.124620 0.845102 -0.304139 0 255 0
0.338104 -0.327037 -0.381427 76 0 153
0.005620 -0.856392 0.142889 153 0 76
0.246457 -0.336820 -0.473622 76 153 0
0.503536 0.614207 0.030523 76 0 153
0.459917 -0.856392 0.053652 153 0 76
-0.370794 0.753912 0.292221 0 255 0
-0.336666 -0.461355 -0.384519 76 0 153
0.194834 0.753912 -0.450701 0 255 0
0.450940 0.368000 0.220861 76 0 153
0.504692 -0.382969 0.147711 76 153 0
-0.527865 -0.662270 0.040264 204 51 127
-0.382261 0.656362 -0.372638 76 153 0
0.186531 -0.856392 -0.146199 153 0 76
-0.321902 -0.338408 -0.426260 76 153 0
0.330897 -0.669450 0.182035 204 51 127
-0.220432 0.693160 -0.487576 76 153 0
0.132612 0.764211 -0.517748 0 255 0
0.432783 0.696241 -0.266066 76 0 153
-0.529910 -0.136555 -0.005061 76 153 0
0.498105 -0.225081 -0.179992 76 153 0
-0.505382 0.599757 -0.048312 76 0 153
0.298924 -0.653082 -0.441349 76 153 0
-0.178031 0.845102 -0.475754 0 255 0
-0.333840 0.845102 -0.319747 0 255 0
0.321875 0.753912 0.189764 0 255 0
0.506528 0.052365 -0.154466 76 153 0
0.204470 0.753912 0.349167 0 255 0
-0.156657 -0.856392 -0.319121 153 0 76
-0.521240 -0.162945 -0.101325 76 153 0
-0.528653 -0.656561 -0.035460 76 153 0
-0.507564 -0.813159 -0.158455 153 0 76
0.427222 -0.086369 -0.315971 76 153 0
-0.173122 -0.669450 0.448720 204 51 127
-0.439614 -0.802857 -0.209218 153 0 76
0.340811 0.429105 -0.409736 76 153 0
-0.067217 0.827062 -0.527928 0 255 0
-0.499672 0.304811 -0.181750 76 0 153
-0.089653 -0.307237 0.514925 76 153 0
-0.122299 -0.669450 -0.354644 204 51 127
0.341118 0.753912 -0.349388 0 255 0
0.365234 -0.460951 -0.355060 76 0 153
-0.391391 0.311382 0.315828 76 0 153
0.175955 -0.012870 0.467312 76 0 153
-0.476659 -0.602422 -0.236637 76 153 0
-0.353991 0.407036 0.387330 76 153 0
0.285195 -0.275170 0.438335 76 153 0
-0.096526 -0.775312 -0.526362 153 0 76
0.501286 -0.319932 0.053323 76 0 153
-0.165035 0.753912 0.209265 0 255 0
-0.306923 -0.632476 0.424384 76 153 0
-0.293293 -0.856392 0.047809 153 0 76
-0.328084 -0.163052 -0.392312 76 0 153
0.096973 -0.669450 -0.333197 204 51 127
0.298686 -0.669450 0.076307 204 51 127
-0.092125 0.180229 -0.527201 76 153 0
0.395264 0.845102 -0.010825 0 255 0
0.204122 -0.669450 0.071532 204 51 127
0.035110 -0.570241 0.520989 76 153 0
0.491847 -0.410463 -0.119770 76 0 153
0.527553 -0.820185 -0.019911 153 0 76
-0.509005 -0.818219 0.140836 153 0 76
0.376514 -0.629081 0.363734 76 153 0
-0.165165 -0.031902 0.472015 76 0 153
0.053109 0.283346 0.519577 76 153 0
0.548688 0.802662 -0.003473 127 0 127
-0.292392 0.511468 0.406998 76 0 153
-0.357778 -0.524917 -0.365347 76 0 153
0.292864 -0.231093 -0.417789 76 0 153
0.157742 0.845102 0.075464 0 255 0
-0.073437 0.558664 0.494207 76 0 153
0.129845 -0.856392 -0.018026 153 0 76
0.079623 0.779663 0.516378 0 255 0
-0.486471 -0.512851 -0.149271 76 0 153
0.427811 0.129268 -0.274422 76 0 153
0.374872 -0.009766 0.365616 76 153 0
-0.361477 -0.856392 0.235126 153 0 76
0.157772 -0.613985 -0.486574 76 0 153
0.010651 0.186668 0.522195 76 153 0
-0.193577 -0.856392 0.093371 153 0 76
-0.476974 0.643987 0.164745 76 0 153
0.231293 0.421271 -0.481194 76 153 0
0.056035 0.753912 0.393105 0 255 0
0.056709 -0.669450 0.334419 204 51 127
0.198934 -0.856392 0.121629 153 0 76
0.371385 0.295831 0.368966 76 153 0
0.522744 -0.291155 -0.076650 76 153 0
0.321387 -0.669450 -0.001314 204 51 127
0.072740 0.845102 -0.425215 0 255 0
-0.423566 -0.140139 0.272220 76 0 153
0.502352 -0.856392 0.106598 153 0 76
0.252660 -0.818406 -0.470084 153 0 76
0.431533 0.196068 0.297595 76 153 0
-0.297498 -0.669450 -0.048254 204 51 127
-0.293381 0.337551 -0.447043 76 153 0
0.489485 -0.192231 0.116029 76 0 153
0.019098 0.698901 -0.511673 76 0 153
-0.095131 -0.105437 -0.526743 76 153 0
-0.379108 0.845102 0.294847 0 255 0
0.457023 0.224031 -0.220626 76 0 153
-0.433486 -0.669450 0.076494 204 51 127
-0.088827 0.753912 0.239334 0 255 0
0.454270 -0.142253 0.213391 76 0 153
0.041751 0.753912 0.035613 0 255 0
0.261394 -0.669450 -0.244366 204 51 127
0.212382 0.098429 0.452076 76 0 153
-0.231130 0.066434 0.444109 76 0 153
-0.365142 -0.669450 -0.316009 204 51 127
-0.505350 0.218512 0.033418 76 0 153
0.497621 0.623920 -0.092312 76 0 153
-0.473214 -0.299800 0.174823 76 0 153
-0.030687 0.845102 0.365196 0 255 0
-0.269237 0.845102 0.110248 0 255 0
0.414551 0.467747 0.320463 76 153 0
0.211553 0.443851 0.452572 76 0 153
0.127419 0.753912 0.440845 0 255 0
-0.202166 -0.856392 0.438498 153 0 76
0.473170 0.136862 -0.181903 76 0 153
-0.342684 0.293767 -0.409987 76 153 0
-0.260659 -0.556636 -0.440254 76 0 153
0.490783 -0.447049 -0.200700 76 0 153
0.050067 -0.856392 0.317232 153 0 76
-0.161088 0.076149 -0.486054 76 0 153
-0.016794 -0.669450 -0.423307 204 51 127
-0.448766 0.014399 -0.287689 76 153 0
0.490540 -0.791642 -0.200920 153 0 76
0.187211 -0.669450 -0.437534 204 51 127
-0.043888 0.753912 -0.051453 0 255 0
-0.045359 0.845102 -0.249573 0 255 0
-0.474269 0.407782 -0.185260 76 0 153
-0.142387 -0.669450 0.095918 204 51 127
-0.320649 -0.573450 -0.398838 76 0 153
0.117525 0.753912 -0.331318 0 255 0
0.501150 -0.320476 -0.170904 76 153 0
0.481486 -0.785572 0.209948 153 0 76
0.347486 -0.028298 -0.372929 76 0 153
-0.027137 -0.673589 -0.534076 76 153 0
0.362976 0.626306 0.377142 76 153 0
-0.094673 0.674437 -0.503799 76 153 0
-0.059707 -0.058228 0.496144 76 0 153
-0.309068 0.667846 -0.435996 76 153 0
-0.223622 0.845102 -0.044570 0 255 0
-0.322990 -0.672486 -0.425305 204 51 127
-0.522731 -0.574240 0.078528 76 153 0
-0.492409 -0.573084 -0.125367 76 0 153
-0.421650 0.678394 -0.287656 76 0 153
-0.524744 0.545957 0.066222 76 153 0
0.477848 -0.011412 0.217149 76 0 153
0.416510 -0.002387 0.318099 76 153 0
-0.401564 0.194530 -0.351499 76 153 0
-0.242464 0.753912 0.302102 0 255 0
-0.499423 0.486410 -0.094001 76 0 153
-0.325146 0.753912 0.109891 0 255 0
0.292519 -0.507345 -0.418045 76 0 153
-0.518116 0.715844 -0.101607 0 255 0
-0.124546 -0.856392 -0.455760 153 0 76
0.089055 0.753912 -0.094611 0 255 0
-0.160586 0.845102 -0.194849 0 255 0
-0.343090 -0.669450 0.307832 204 51 127
0.062909 -0.707996 0.506748 204 51 127
0.428255 0.596213 -0.315008 76 153 0
0.220894 -0.669450 -0.331168 204 51 127
-0.489219 -0.729916 0.196953 153 0 76
0.382504 0.397544 0.357611 76 153 0
-0.472750 0.555218 0.176928 76 0 153
-0.509098 0.446423 0.139936 76 153 0
-0.464123 -0.179544 -0.209650 76 0 153
-0.054154 -0.669450 0.380782 204 51 127
0.011274 0.753912 -0.341372 0 255 0
-0.484075 0.364300 0.208346 76 153 0
-0.257732 -0.669450 0.180913 204 51 127
0.466400 -0.671543 -0.253344 76 153 0
-0.354371 -0.117921 0.355918 76 0 153
0.079588 0.065775 -0.505622 76 0 153
0.047199 -0.856392 0.241661 153 0 76
-0.329242 0.214031 -0.420989 76 153 0
0.459677 -0.247920 0.201951 76 0 153
-0.260545 -0.522660 0.427717 76 0 153
0.054442 -0.389740 0.519459 76 0 153
-0.061696 0.632996 0.495801 76 0 153
-0.492758 -0.399536 -0.123962 76 0 153
-0.305966 0.494984 -0.438185 76 153 0
-0.300853 -0.791441 0.429168 153 0 76
-0.468444 -0.481167 -0.200506 76 0 153
0.360469 -0.197601 0.347803 76 0 153
0.502651 -0.717111 -0.158653 153 0 76
0.085929 0.753912 -0.449277 0 255 0
0.324982 0.414301 0.380499 76 0 153
0.238219 0.753912 -0.272041 0 255 0
-0.442100 0.845102 -0.249823 0 255 0
0.018571 -0.669450 0.268587 204 51 127
-0.107046 0.047719 -0.501093 76 0 153
-0.405375 -0.429015 -0.309870 76 0 153
-0.229908 0.583953 0.444992 76 0 153
0.284342 -0.669450 0.371763 204 51 127
-0.507224 0.067398 -0.007834 76 0 153
0.524581 -0.628215 0.049615 76 153 0
-0.247905 0.845102 0.229471 0 255 0
-0.371496 0.411797 -0.383802 76 153 0
0.011222 0.644749 0.499355 76 0 153
-0.452747 -0.823164 -0.070121 153 0 76
0.424034 0.753912 -0.207778 0 255 0
-0.078807 -0.669450 0.211421 204 51 127
0.348972 -0.106200 0.389653 76 153 0
-0.460213 -0.744283 -0.061566 153 0 76
-0.462875 0.308240 -0.263589 76 153 0
-0.364901 -0.741969 -0.390146 153 0 76
-0.265366 0.753912 -0.373595 0 255 0
-0.214616 -0.361345 -0.464646 76 0 153
0.391252 -0.529903 -0.326210 76 0 153
-0.388813 -0.852871 -0.362722 153 0 76
0.442543 -0.185956 -0.294235 76 153 0
-0.528616 -0.437000 0.024406 76 153 0
0.025295 0.282983 -0.511355 76 0 153
0.224212 -0.454003 0.471632 76 153 0
0.520627 -0.006380 0.079226 76 153 0
-0.378509 -0.406678 -0.376688 76 153 0
-0.493680 -0.176488 0.185982 76 153 0
0.120235 -0.546887 -0.497138 76 0 153
0.287149 0.845102 -0.078051 0 255 0
-0.427275 0.572356 -0.279114 76 0 153
0.104729 -0.658427 -0.524182 76 153 0
-0.006365 0.753912 0.461886 0 255 0
0.150594 0.845102 -0.369931 0 255 0
0.401845 0.239439 -0.348744 76 153 0
-0.049633 -0.426013 0.497529 76 0 153
0.340633 -0.398835 -0.409646 76 153 0
0.527364 -0.258641 0.004785 76 153 0
-0.044833 -0.819910 -0.533394 153 0 76
0.507752 -0.802768 0.137217 153 0 76
0.430532 -0.649235 -0.311017 76 153 0
-0.065790 -0.856392 0.066183 153 0 76
-0.242462 -0.669450 0.061730 204 51 127
-0.506088 0.377874 0.150383 76 153 0
0.463803 -0.669450 -0.096008 204 51 127
-0.179602 -0.033595 -0.479431 76 0 153
0.223253 0.753912 0.139226 0 255 0
-0.505219 -0.744283 0.049790 153 0 76
-0.509548 -0.679388 -0.151851 204 51 127
-0.002274 0.377691 -0.534903 76 153 0
-0.042101 0.118833 -0.533328 76 153 0
0.498242 0.261634 -0.180286 76 153 0
-0.118401 -0.856392 0.345164 153 0 76
-0.445812 0.406951 -0.292284 76 153 0
0.518559 -0.128146 -0.104931 76 153 0
-0.014742 -0.513813 -0.511888 76 0 153
-0.413852 -0.381077 0.324227 76 153 0
-0.461121 0.126418 -0.266560 76 153 0
-0.386114 0.655557 0.321594 76 0 153
-0.489275 -0.622258 0.196209 76 153 0
0.496686 0.505501 -0.184565 76 153 0
0.461155 -0.669450 -0.182512 204 51 127
0.471485 0.828845 0.220105 0 255 0
-0.383244 -0.744444 0.147585 153 0 76
-0.477254 -0.056285 -0.176476 76 0 153
-0.459433 -0.821530 -0.269384 153 0 76
0.470972 0.753912 -0.085877 0 255 0
0.346127 0.845102 -0.340432 0 255 0
0.319649 -0.423421 0.413698 76 153 0
0.393477 0.525911 0.310637 76 0 153
-0.390036 0.753912 -0.035738 0 255 0
-0.494364 0.328758 0.105590 76 0 153
-0.156059 -0.850687 -0.511108 153 0 76
-0.373976 0.584964 -0.381280 76 153 0
0.557132 0.684289 -0.033200 127 0 127
-0.027026 -0.856392 -0.155944 153 0 76
0.137030 -0.020046 -0.516715 76 153 0
-0.042945 -0.856392 0.218475 153 0 76
0.181663 -0.237017 -0.478065 76 0 153
0.227054 0.753912 -0.141832 0 255 0
-0.487789 -0.719470 -0.212461 153 0 76
-0.279056 -0.856392 -0.290120 153 0 76
0.035000 0.845102 -0.093136 0 255 0
-0.146672 0.753912 0.118319 0 255 0
-0.230261 0.689068 0.470206 0 255 0
-0.416912 0.845102 -0.054610 0 255 0
-0.073615 -0.544452 -0.529720 76 153 0
-0.224821 0.753912 -0.156749 0 255 0
-0.028403 -0.788897 0.521773 153 0 76
-0.279606 -0.856392 -0.376905 153 0 76
-0.216148 0.421958 -0.489403 76 153 0
0.452196 -0.333335 -0.230571 76 0 153
-0.458583 0.753912 -0.205002 0 255 0
-0.507436 0.793264 0.106765 0 255 0
-0.315540 0.674378 0.418678 76 153 0
-0.065282 -0.669450 -0.475924 204 51 127
0.331071 0.753912 0.079401 0 255 0
0.433972 -0.349298 0.251548 76 0 153
-0.413114 -0.744283 0.015570 153 0 76
-0.132757 0.551335 -0.494865 76 0 153
0.408204 -0.669450 -0.070595 204 51 127
0.141637 -0.601606 0.502852 76 153 0
-0.152048 0.302827 -0.513066 76 153 0
0.191686 -0.118666 -0.498746 76 153 0
0.172801 0.753912 0.250253 0 255 0
0.287703 0.815740 -0.449439 0 255 0
0.051273 -0.669450 0.217090 204 51 127
0.013275 -0.113989 -0.511879 76 0 153
0.422481 -0.856392 -0.185863 153 0 76
-0.432291 0.845102 0.045854 0 255 0
