ply
format ascii 1.0
element vertex 1282
property float x
property float y
property float z
property uchar red
property uchar green
property uchar blue
end_header
0.094552 -0.156275 0.113868 204 51 127
0.226359 0.251547 0.223321 204 51 127
-0.870242 -0.413286 -0.016500 76 0 153
0.159353 -0.337513 -0.181981 0 127 127
0.423827 0.165522 0.018677 0 127 127
-0.870242 0.189926 0.097545 76 0 153
0.393677 0.328523 -0.133544 255 0 0
-0.000359 0.328523 0.020185 255 0 0
0.484435 -0.435589 0.237589 153 0 76
-0.759352 0.024007 -0.237049 0 255 0
0.466813 -0.087558 -0.085050 153 0 76
0.324765 -0.398869 -0.098725 255 0 0
0.401943 0.096136 0.228202 76 153 0
0.089578 0.214692 0.258564 204 51 127
0.323125 -0.017305 -0.093152 76 0 153
-0.852620 -0.092097 -0.062473 76 0 153
0.061511 -0.394240 -0.252445 0 0 255
0.076930 0.060215 -0.059915 153 0 76
0.043889 -0.356042 -0.039311 204 51 127
-0.551444 0.346145 0.159271 255 0 0
0.167701 0.346145 0.041212 255 0 0
0.453645 0.328523 0.064575 255 0 0
-0.870242 0.209855 0.031694 76 0 153
0.061511 0.296604 -0.031821 204 51 127
-0.695509 0.022086 -0.237049 0 255 0
0.380903 -0.008090 0.223321 76 0 153
-0.401083 0.328523 -0.019812 255 0 0
0.154038 0.346145 -0.157258 255 0 0
0.431494 -0.196827 0.181019 0 0 255
0.081266 0.249263 -0.199603 127 127 0
-0.583964 -0.092059 -0.254671 0 255 0
0.484435 -0.241951 0.173204 153 0 76
0.077033 -0.014001 0.221435 153 0 76
-0.498316 0.328523 -0.255267 255 0 0
0.286651 -0.117489 0.223321 153 0 76
-0.870242 -0.312848 0.148505 76 0 153
0.173114 -0.373045 -0.121675 76 153 0
-0.870242 -0.438852 -0.165284 76 0 153
-0.039751 0.346145 0.070045 255 0 0
0.484435 -0.413825 -0.161082 153 0 76
0.146241 -0.373045 -0.089531 76 153 0
-0.539363 0.329188 0.323545 255 0 0
-0.870242 0.055190 0.134788 76 0 153
0.209823 0.234968 -0.181981 127 0 127
0.402618 -0.196827 -0.152077 0 255 0
0.250150 0.162217 -0.148521 0 127 127
0.043889 0.239304 0.218155 204 51 127
0.354911 -0.017305 0.079908 76 0 153
-0.721452 0.328523 -0.253827 255 0 0
-0.659318 0.328523 -0.076240 255 0 0
-0.852620 -0.188764 0.113149 76 0 153
0.043889 -0.259937 0.137930 204 51 127
-0.791126 0.346287 -0.286048 255 0 0
0.061511 -0.242672 0.025100 204 51 127
-0.668095 0.328523 -0.280817 255 0 0
0.269595 -0.014001 0.145835 76 0 153
0.206745 -0.355697 0.240943 127 127 0
0.183640 -0.017305 -0.115585 76 0 153
-0.163463 0.037763 -0.252101 0 255 0
0.076930 -0.161064 -0.130777 204 51 127
0.166743 -0.373045 -0.167147 76 153 0
0.228381 0.110482 0.281516 76 0 153
0.523329 0.328523 -0.132219 255 0 0
-0.857893 0.348678 -0.258316 255 0 0
0.394842 0.028417 -0.254671 0 0 255
0.061421 -0.475472 0.048451 204 51 127
0.451394 0.273440 0.107649 0 255 0
0.385327 0.234112 -0.199603 127 0 127
0.187368 -0.398869 0.056810 255 0 0
-0.877718 0.346145 0.228656 255 0 0
0.279235 -0.196827 -0.194268 0 255 0
-0.187812 -0.027979 -0.254671 0 255 0
-0.621265 0.037763 -0.253708 0 255 0
0.466813 0.229366 -0.059517 153 0 76
0.134848 0.165522 -0.196414 0 127 127
0.094552 0.226688 0.141254 127 127 0
-0.870242 -0.193250 -0.104330 76 0 153
0.094552 -0.132119 -0.197864 204 51 127
0.441600 0.162217 -0.124167 0 255 0
-0.414500 0.328523 0.115031 255 0 0
-0.644179 0.346145 0.184042 255 0 0
-0.852620 0.270697 -0.108998 76 0 153
0.484435 0.032823 0.094132 153 0 76
0.213335 0.298801 0.268803 153 0 76
0.061511 0.119500 -0.034417 204 51 127
0.466813 -0.212960 -0.000760 153 0 76
-0.265427 0.328523 0.065032 255 0 0
0.199149 0.078187 -0.199603 153 76 0
0.451394 0.064306 0.238064 76 0 153
0.310195 -0.330803 0.223321 127 127 0
-0.852620 -0.286287 0.203961 76 0 153
0.484435 -0.185973 -0.090306 153 0 76
-0.870242 0.068906 -0.023803 76 0 153
-0.870242 -0.227321 -0.056995 76 0 153
0.043889 -0.143956 0.015388 204 51 127
0.078623 -0.193523 -0.165013 0 255 0
-0.310389 0.328523 0.282982 255 0 0
0.234743 -0.014001 0.011975 76 0 153
0.061511 0.096601 0.172801 204 51 127
-0.085051 -0.037844 -0.237049 0 255 0
0.466813 -0.343103 -0.161996 153 0 76
0.061511 -0.312876 0.027652 204 51 127
0.401378 -0.118049 0.258564 153 0 76
0.118783 0.239905 -0.256213 0 0 255
0.276611 -0.180609 0.223321 153 0 76
0.434051 -0.376349 0.180036 255 0 0
-0.852620 0.032855 0.033051 76 0 153
0.115848 -0.193523 0.002516 0 255 0
-0.630563 0.346145 -0.214124 255 0 0
0.043889 -0.459937 -0.216118 204 51 127
0.425252 -0.409234 0.215611 76 0 153
0.451394 0.061784 -0.092572 153 0 76
-0.870242 -0.112161 -0.217700 76 0 153
0.061511 -0.365210 0.152689 204 51 127
-0.047963 0.346145 -0.083752 255 0 0
0.433772 -0.322502 -0.102614 127 0 127
0.388765 -0.144675 -0.181981 255 0 0
-0.870242 -0.131701 -0.000202 76 0 153
0.433772 -0.152923 -0.000420 0 0 255
-0.145159 0.328523 -0.020351 255 0 0
0.392394 0.070814 0.258564 76 153 0
0.433772 0.202825 0.011604 0 255 0
-0.870242 0.025816 -0.237015 76 0 153
-0.644020 -0.142721 -0.237049 0 255 0
0.021492 -0.178104 -0.252242 0 255 0
0.043889 -0.066467 0.239304 204 51 127
0.141646 0.098084 0.258564 76 153 0
0.134610 -0.196827 0.131649 0 255 0
0.061511 0.152522 -0.200698 204 51 127
-0.761729 0.328523 -0.102669 255 0 0
-0.852620 -0.152409 0.199966 76 0 153
-0.852620 0.038122 -0.158589 76 0 153
0.058202 -0.413210 0.240943 204 51 127
0.248416 -0.193523 0.199644 0 255 0
0.224285 -0.193523 0.069193 0 255 0
0.271669 0.328523 -0.169684 255 0 0
0.104522 -0.373045 0.186867 255 0 0
0.135736 0.346145 -0.104480 255 0 0
0.462586 0.063512 -0.256213 0 0 255
0.166970 0.320217 -0.256213 0 0 255
0.043889 0.051246 -0.167971 204 51 127
-0.870242 -0.061601 -0.118896 76 0 153
-0.155929 -0.136377 -0.254671 0 255 0
0.113247 -0.473805 0.233233 76 0 153
0.378110 0.309609 0.258564 204 51 127
0.363205 0.162217 -0.199547 127 0 127
0.043889 0.273037 -0.155876 204 51 127
-0.852620 -0.374485 0.039523 76 0 153
0.061511 0.283915 -0.205315 204 51 127
-0.379673 0.346145 -0.193636 255 0 0
0.466813 0.325571 -0.201393 153 0 76
0.433772 -0.178369 0.141915 0 0 255
0.061511 -0.048332 -0.089656 204 51 127
-0.870242 0.002201 0.094078 76 0 153
0.451394 -0.367684 0.052334 127 0 127
0.375765 -0.193523 0.078644 0 255 0
0.467946 0.346145 -0.103564 255 0 0
0.323355 0.328523 -0.130688 255 0 0
0.133661 0.010299 0.223321 76 153 0
-0.060657 0.328523 -0.232013 255 0 0
0.094848 -0.179684 0.240943 153 0 76
-0.431227 0.328523 0.215690 255 0 0
-0.870242 -0.158060 0.046732 76 0 153
0.151709 -0.133570 0.223321 153 0 76
-0.148067 -0.087668 -0.254671 0 255 0
-0.356616 -0.133902 -0.237049 0 255 0
0.407935 0.348429 -0.286048 255 0 0
0.043889 -0.073633 -0.025364 204 51 127
0.211514 -0.154814 -0.181981 255 0 0
0.495020 0.346145 0.112658 255 0 0
0.466813 0.235974 -0.129697 153 0 76
0.466813 -0.185225 -0.167758 153 0 76
-0.717034 -0.031383 -0.237049 0 255 0
0.291174 -0.273575 0.223321 127 127 0
-0.584852 0.346145 0.282674 255 0 0
0.354091 0.346145 -0.239000 255 0 0
0.254192 -0.253000 0.240943 127 127 0
0.061511 -0.166506 0.175942 204 51 127
0.224854 -0.017305 -0.169722 76 0 153
0.430514 -0.150196 0.223321 0 0 255
0.484435 0.009977 -0.078905 153 0 76
-0.870242 -0.194556 0.003563 76 0 153
0.061511 -0.416166 0.164774 204 51 127
0.328455 0.096136 -0.198895 153 76 0
-0.852620 0.204586 -0.071283 76 0 153
0.232801 -0.015309 -0.256213 0 0 255
0.448889 0.321847 0.240943 204 51 127
-0.852620 0.248647 0.089467 76 0 153
0.466813 0.087252 -0.069913 153 0 76
0.225787 0.346145 -0.081209 255 0 0
0.061511 0.009888 -0.137421 204 51 127
-0.832014 0.034103 -0.254671 0 255 0
0.428410 -0.017305 0.097756 76 0 153
0.061511 0.089057 0.059818 204 51 127
0.483333 -0.294758 0.246882 127 127 0
0.046624 0.133195 -0.254671 204 51 127
0.484435 0.310616 -0.160159 153 0 76
0.445919 0.211993 -0.256213 0 0 255
0.076930 -0.284490 -0.069502 127 127 0
-0.870242 0.295729 -0.220014 76 0 153
0.337147 -0.090395 -0.254671 0 0 255
0.433772 -0.367654 -0.159365 127 0 127
0.220144 -0.272729 0.223321 127 127 0
0.252809 0.250138 0.258564 204 51 127
0.394889 -0.253567 0.240943 127 127 0
0.336988 0.029016 0.258564 76 153 0
0.413214 0.275658 -0.184837 127 0 127
0.233352 0.162217 -0.104392 0 127 127
0.033184 0.328523 0.173847 255 0 0
-0.852620 0.070763 0.015188 76 0 153
0.451394 0.059850 0.013380 76 0 153
0.043889 0.273020 -0.104194 204 51 127
-0.870242 -0.271083 -0.166222 76 0 153
0.081660 0.165522 0.058728 127 127 0
0.467533 -0.475472 -0.186357 153 0 76
-0.721165 0.328523 -0.057489 255 0 0
0.356335 0.346145 -0.070267 255 0 0
-0.870242 -0.309404 0.033687 76 0 153
0.338076 -0.053270 -0.256213 0 0 255
-0.852620 0.069450 -0.138733 76 0 153
0.114607 -0.014001 0.101723 76 0 153
0.043889 -0.015079 -0.085099 204 51 127
0.043889 0.076061 0.026200 204 51 127
0.303485 -0.373045 -0.060490 255 0 0
-0.103240 0.346145 0.081622 255 0 0
0.362349 -0.164631 0.223321 153 0 76
-0.741754 0.328523 -0.184670 255 0 0
0.094552 0.208698 -0.103862 127 127 0
0.484435 0.119371 -0.154523 153 0 76
0.076930 -0.133567 0.229057 204 51 127
0.043889 0.065898 -0.221282 204 51 127
0.484435 0.157718 0.009431 153 0 76
0.294168 0.112524 0.258564 76 153 0
0.060084 0.047692 0.240943 76 153 0
0.122703 -0.435926 0.215611 76 0 153
-0.859967 0.346145 0.027813 255 0 0
-0.705534 0.328523 0.093843 255 0 0
0.076930 -0.267191 0.111106 127 127 0
-0.852620 -0.256081 -0.216669 76 0 153
0.202432 -0.398869 -0.060129 255 0 0
-0.852620 -0.443556 0.051452 76 0 153
0.174908 0.231339 0.258564 204 51 127
0.156477 -0.373045 0.180808 76 153 0
0.417662 -0.348809 0.223321 127 127 0
0.484435 -0.279304 -0.012331 153 0 76
0.266545 0.162217 0.000902 0 127 127
0.090159 -0.017305 0.171927 153 0 76
-0.125004 0.328523 0.306967 255 0 0
0.076930 -0.122906 0.135169 204 51 127
-0.468037 -0.178104 -0.237981 0 255 0
0.136133 -0.014001 -0.019120 76 0 153
0.413406 -0.175423 -0.181981 255 0 0
0.357249 -0.446952 0.233233 76 0 153
0.466813 0.202309 -0.147769 153 0 76
-0.462225 0.328523 0.287054 255 0 0
0.451394 0.230251 -0.018250 0 255 0
-0.852620 -0.430549 0.114867 76 0 153
-0.852620 -0.106849 -0.138234 76 0 153
-0.870242 -0.215410 0.204822 76 0 153
-0.852620 -0.386672 -0.097383 76 0 153
0.094552 0.020420 0.204898 153 0 76
0.438775 -0.236303 -0.254671 0 0 255
0.151170 0.328523 -0.223621 255 0 0
0.451394 0.245550 0.045090 0 255 0
-0.830086 0.328523 -0.072721 255 0 0
-0.852620 -0.059734 0.025696 76 0 153
-0.870242 -0.394810 -0.218677 76 0 153
0.362044 -0.152941 -0.256213 0 0 255
0.086742 0.275658 -0.086543 127 127 0
0.428746 0.049402 -0.199603 76 0 153
0.307790 0.063928 -0.181981 153 76 0
0.307099 -0.017305 0.035702 76 0 153
-0.810459 0.328523 0.248396 255 0 0
0.001428 -0.146562 -0.254671 0 255 0
0.331334 0.150543 -0.254671 0 0 255
0.484435 0.100308 0.000149 153 0 76
-0.852620 -0.197251 -0.068313 76 0 153
0.484435 0.039733 -0.039580 153 0 76
0.466813 -0.320083 0.087300 153 0 76
-0.249880 0.346145 -0.203815 255 0 0
0.276265 0.308854 -0.254671 0 0 255
0.445997 0.096136 -0.016558 76 0 153
0.085845 -0.263099 -0.199603 127 127 0
0.299872 0.328523 0.140392 255 0 0
0.433772 0.015927 0.061647 76 0 153
0.109341 0.328523 0.216729 255 0 0
0.466813 -0.113017 0.062840 153 0 76
0.229078 -0.354278 -0.199603 0 127 127
0.225322 -0.196827 -0.050008 0 255 0
-0.852620 -0.285297 -0.053642 76 0 153
0.175774 0.008673 0.258564 76 153 0
0.186804 0.165522 0.171673 0 127 127
0.092729 -0.238836 0.240943 127 127 0
-0.215469 0.328523 -0.189245 255 0 0
-0.852620 -0.300677 -0.228838 76 0 153
-0.852620 -0.241532 0.150410 76 0 153
0.433772 -0.308178 0.167797 127 0 127
-0.852620 0.143700 -0.032657 76 0 153
0.043889 -0.306694 0.188056 204 51 127
0.377408 -0.373045 -0.069597 76 153 0
0.043889 -0.319196 -0.087092 204 51 127
0.332780 -0.120406 -0.181981 255 0 0
-0.870242 -0.158571 -0.054344 76 0 153
0.466813 0.289692 -0.108338 153 0 76
0.194208 -0.168626 0.258564 153 0 76
0.037728 0.346145 0.264173 255 0 0
0.043889 0.234959 -0.051635 204 51 127
0.061511 -0.107802 -0.218865 204 51 127
0.044991 -0.343687 0.257965 127 127 0
-0.776038 0.346145 0.144046 255 0 0
0.410719 -0.205123 0.258564 127 127 0
-0.824547 0.328523 -0.255565 255 0 0
0.150133 -0.173734 -0.256213 0 0 255
0.094552 -0.161200 0.031853 204 51 127
-0.335578 0.328523 -0.137977 255 0 0
-0.870242 -0.228667 -0.155001 76 0 153
0.043889 -0.149044 0.086727 204 51 127
-0.602378 -0.037080 -0.254671 0 255 0
-0.508535 0.037267 -0.254671 0 255 0
0.122353 0.165522 0.198061 0 127 127
0.061511 -0.059174 0.157805 204 51 127
-0.870242 -0.375342 0.157233 76 0 153
0.466813 -0.134359 -0.026329 153 0 76
-0.405307 -0.160108 -0.237049 0 255 0
0.372845 0.328523 0.131631 255 0 0
0.398214 -0.398869 -0.253552 255 0 0
0.179056 0.181400 0.223321 204 51 127
-0.870242 -0.062170 0.211115 76 0 153
0.076930 -0.354756 0.064802 204 51 127
0.285667 0.291044 0.288261 153 0 76
0.214486 0.197641 -0.199603 127 0 127
0.341619 -0.014001 0.153105 76 0 153
0.417574 -0.170719 -0.256213 0 0 255
-0.852620 -0.153219 0.160824 76 0 153
0.149530 -0.017305 0.198850 76 0 153
0.073190 0.105705 0.258564 76 153 0
0.427172 0.346145 0.089221 255 0 0
-0.870242 0.029017 -0.081390 76 0 153
0.305357 -0.442922 0.215611 76 0 153
0.090437 0.165522 0.105906 0 127 127
0.196943 -0.309968 -0.199603 0 127 127
-0.746127 0.329229 -0.286048 255 0 0
0.439617 -0.262909 -0.001088 127 0 127
0.205463 0.328523 0.050443 255 0 0
0.264809 -0.373045 0.173805 255 0 0
0.269351 -0.196827 0.136101 0 255 0
0.484435 0.034571 0.223500 153 0 76
0.466813 0.298790 0.207103 153 0 76
0.315607 -0.398869 0.029439 255 0 0
-0.870242 -0.182618 0.225171 76 0 153
0.445247 -0.083387 0.163705 0 0 255
-0.870242 -0.066213 0.107325 76 0 153
0.466813 -0.307891 -0.088933 153 0 76
0.138726 -0.376349 0.068761 76 153 0
0.369141 -0.360468 -0.181981 0 127 127
0.484435 0.204505 -0.251808 153 0 76
-0.256410 -0.037846 -0.237049 0 255 0
-0.533100 0.346145 0.099427 255 0 0
-0.870242 0.176374 0.167459 76 0 153
0.400262 -0.042136 -0.254671 0 0 255
0.484435 -0.017064 -0.133016 153 0 76
-0.863878 -0.004393 0.240943 76 0 153
0.263452 -0.085568 -0.256213 0 0 255
0.043889 -0.026143 0.228645 204 51 127
0.433772 -0.155614 0.081042 0 0 255
-0.870242 -0.472454 -0.000428 76 0 153
-0.048386 -0.029627 -0.237049 0 255 0
0.200599 -0.017305 -0.050773 76 0 153
0.027949 -0.004114 -0.254671 0 255 0
0.066039 -0.381247 -0.052328 204 51 127
-0.872150 0.346145 -0.075846 255 0 0
0.146517 -0.212624 0.240943 0 255 0
-0.334235 -0.030237 -0.254671 0 255 0
0.318963 0.179285 0.223321 204 51 127
0.484435 0.176392 -0.171889 153 0 76
0.128821 -0.248766 0.258564 127 127 0
-0.852620 -0.387570 -0.159325 76 0 153
0.433772 -0.358472 -0.081020 127 0 127
0.064384 0.328523 0.070442 255 0 0
0.076930 0.013717 -0.060813 153 0 76
0.405815 -0.098862 -0.256213 0 0 255
-0.794391 0.005198 -0.254671 0 255 0
-0.870242 -0.318710 -0.110218 76 0 153
0.329168 -0.376349 0.165314 255 0 0
-0.852620 0.272814 -0.167145 76 0 153
-0.061382 0.346145 0.138092 255 0 0
0.079793 0.140967 0.258564 76 153 0
-0.870242 -0.450209 -0.058335 76 0 153
-0.743738 0.328523 0.052811 255 0 0
0.433772 0.242273 -0.159450 0 255 0
0.183765 0.346145 0.215974 255 0 0
-0.852620 0.079794 0.239619 76 0 153
-0.502114 -0.119991 -0.254671 0 255 0
0.484435 -0.018049 0.169910 153 0 76
0.347846 0.253390 0.223321 204 51 127
0.318983 0.279562 0.258564 204 51 127
0.148905 -0.288645 0.223321 127 127 0
0.043889 -0.194684 0.209441 204 51 127
0.484435 0.087349 0.084643 153 0 76
0.484435 -0.403549 0.008606 153 0 76
0.482264 -0.090850 -0.254671 0 0 255
0.043889 0.151475 0.217004 204 51 127
0.205640 0.328523 -0.205786 255 0 0
0.471309 -0.475472 -0.253005 153 0 76
0.464459 0.328523 -0.255275 255 0 0
0.108581 0.162217 -0.161673 0 127 127
-0.852620 -0.374790 0.121283 76 0 153
0.249351 0.128062 0.240943 76 153 0
0.368005 -0.196827 0.149817 0 255 0
0.061511 -0.067044 0.011255 204 51 127
-0.870242 -0.352869 -0.011399 76 0 153
0.076930 -0.332633 -0.105847 127 127 0
-0.429886 0.016477 -0.254671 0 255 0
0.241528 0.175859 0.258564 204 51 127
-0.870242 -0.277237 0.174192 76 0 153
0.442920 -0.059845 0.240943 153 0 76
0.231596 -0.109735 0.258564 153 0 76
0.075601 0.346145 -0.059704 255 0 0
0.484435 -0.379242 0.156195 153 0 76
0.043889 -0.190563 -0.196736 204 51 127
-0.254005 0.328523 -0.125190 255 0 0
0.149052 -0.193523 0.165871 0 255 0
0.043889 0.164338 -0.088093 204 51 127
-0.870242 0.098441 0.029038 76 0 153
0.425816 -0.262909 0.225238 127 0 127
0.343292 -0.387992 0.251185 127 127 0
0.433772 0.071618 0.044566 76 0 153
0.232910 -0.014001 0.081959 76 0 153
-0.699937 0.328523 0.278634 255 0 0
0.061511 0.042251 -0.026701 204 51 127
0.113423 -0.193523 0.212372 0 255 0
0.076930 -0.094564 -0.126066 204 51 127
-0.774026 0.346145 0.244346 255 0 0
0.291903 -0.193523 -0.151716 0 255 0
-0.870242 -0.034123 0.183869 76 0 153
0.355161 -0.370550 -0.254671 0 0 255
0.157017 -0.398869 -0.009941 255 0 0
0.483333 0.258477 0.245461 204 51 127
0.061511 -0.245082 -0.142220 204 51 127
0.193463 0.328523 -0.020920 255 0 0
0.043889 -0.005522 -0.014869 204 51 127
-0.870242 -0.473862 -0.224626 76 0 153
-0.584686 0.346145 -0.197083 255 0 0
-0.870242 -0.246916 0.232251 76 0 153
-0.870242 0.120591 0.185917 76 0 153
-0.242696 0.346145 0.270535 255 0 0
0.433772 0.013678 0.185988 76 0 153
0.124932 0.328523 0.295574 255 0 0
0.043889 0.237101 0.182759 204 51 127
0.426654 0.088490 -0.254671 0 0 255
0.484435 -0.065958 0.014284 153 0 76
0.528489 0.328981 0.197604 255 0 0
0.450971 -0.014001 -0.005105 76 0 153
0.267593 -0.022120 -0.256213 0 0 255
0.061511 -0.174685 -0.073991 204 51 127
0.043889 -0.353913 0.033796 204 51 127
0.043889 -0.444446 -0.014449 204 51 127
0.076930 0.266586 0.175108 127 127 0
-0.364777 0.035517 -0.254671 0 255 0
0.368754 0.165522 -0.141340 0 127 127
0.414376 0.015495 0.223321 76 153 0
-0.870242 -0.312182 0.225675 76 0 153
0.334616 0.346145 -0.101319 255 0 0
0.466813 -0.051810 0.113381 153 0 76
0.076930 -0.123102 0.173846 204 51 127
0.230584 -0.398869 0.039299 255 0 0
0.451394 0.215369 -0.088066 0 255 0
-0.852620 -0.200297 -0.185010 76 0 153
0.310253 -0.252073 -0.256213 0 0 255
0.094552 -0.152550 -0.095032 204 51 127
-0.852620 -0.350074 -0.044713 76 0 153
0.061511 -0.000714 0.127930 204 51 127
0.079463 -0.017305 0.026528 76 0 153
0.265939 -0.357070 0.258564 127 127 0
0.435596 -0.017305 0.218320 76 0 153
0.466813 0.024304 0.016894 76 0 153
0.122637 -0.297080 -0.181981 0 127 127
0.179892 -0.280796 0.258564 127 127 0
0.343896 -0.341057 0.223321 127 127 0
0.433772 -0.297750 0.226924 127 127 0
0.094552 -0.307496 0.059521 127 127 0
0.061511 0.232503 -0.164156 127 127 0
-0.870242 -0.004125 0.026073 76 0 153
0.126955 0.111569 -0.256213 0 0 255
-0.352109 0.328523 -0.071144 255 0 0
0.202809 0.162217 0.045006 0 127 127
0.398270 -0.166842 0.223321 153 0 76
0.401634 -0.286363 -0.199603 0 127 127
-0.471625 -0.031271 -0.237049 0 255 0
-0.244487 0.346145 0.158650 255 0 0
0.484435 -0.343774 0.151450 153 0 76
0.119073 0.039424 -0.256213 0 0 255
-0.870242 0.247857 0.159352 76 0 153
-0.796896 0.346145 -0.092723 255 0 0
0.043889 0.254611 0.051486 204 51 127
0.076930 -0.300592 -0.167252 127 127 0
-0.852620 -0.129196 -0.111204 76 0 153
0.043889 -0.474652 -0.049978 204 51 127
0.466813 0.151625 -0.062145 153 0 76
-0.676931 -0.039167 -0.237049 0 255 0
0.187504 -0.398869 -0.182403 255 0 0
-0.852620 0.158534 -0.159018 76 0 153
-0.852620 -0.041351 0.086437 76 0 153
0.065923 0.346145 -0.188238 255 0 0
-0.870242 -0.288965 -0.011211 76 0 153
-0.346061 0.328523 -0.179872 255 0 0
0.273565 0.244695 -0.199603 127 0 127
-0.870242 0.218170 -0.002362 76 0 153
0.409006 0.328523 0.022755 255 0 0
0.433181 0.013580 -0.199603 76 0 153
0.347533 -0.210043 0.251648 153 0 76
-0.426257 0.328523 0.285286 255 0 0
-0.028809 0.346145 0.230864 255 0 0
-0.870242 0.186969 -0.224192 76 0 153
0.074895 0.263213 0.240943 127 127 0
-0.101806 0.328523 -0.272578 255 0 0
0.076930 0.064578 0.153247 153 0 76
0.044991 -0.242255 0.243440 204 51 127
-0.852620 0.027695 0.152454 76 0 153
-0.272531 0.346145 0.026298 255 0 0
0.061511 -0.218149 -0.212055 204 51 127
0.289863 -0.373045 0.030958 76 153 0
0.466813 -0.307458 -0.228629 153 0 76
0.117866 -0.172378 -0.181981 255 0 0
-0.861821 -0.427763 -0.254671 76 0 153
0.265012 0.346145 -0.117735 255 0 0
-0.315009 0.328523 0.169512 255 0 0
0.061511 0.177287 0.187828 204 51 127
0.484435 -0.255201 0.092586 153 0 76
0.528489 0.347607 -0.064278 255 0 0
0.119731 -0.373045 -0.048103 76 153 0
-0.042494 -0.149019 -0.237049 0 255 0
0.254835 -0.014001 -0.048088 76 0 153
-0.542283 -0.177694 -0.254671 0 255 0
0.076320 -0.398869 -0.205311 255 0 0
-0.852620 0.316480 0.158033 76 0 153
0.451394 0.234105 0.162021 153 0 76
0.061511 0.162938 0.003239 204 51 127
0.451394 -0.134838 0.104675 0 0 255
-0.678533 0.328523 0.029476 255 0 0
-0.870242 -0.086281 0.040476 76 0 153
-0.794692 0.328523 0.080231 255 0 0
0.475457 -0.475472 -0.128584 153 0 76
0.466813 -0.009229 0.068769 153 0 76
-0.132664 0.328523 -0.096270 255 0 0
0.359110 -0.373045 0.027173 255 0 0
-0.852620 0.148457 0.029024 76 0 153
0.306058 -0.196827 0.005583 0 255 0
0.158527 0.049444 0.223321 76 153 0
0.484435 -0.148772 -0.087606 153 0 76
-0.201869 0.328523 -0.251794 255 0 0
0.043889 0.257814 -0.021054 204 51 127
-0.852620 -0.029767 -0.066053 76 0 153
-0.642385 0.328523 0.238189 255 0 0
0.291923 -0.373045 0.077228 76 153 0
-0.502157 0.328523 0.239656 255 0 0
0.061511 -0.232963 0.151981 204 51 127
-0.333719 0.328523 0.054908 255 0 0
0.484435 -0.065152 0.063072 153 0 76
0.464571 0.346145 0.178718 255 0 0
0.076930 0.193389 -0.168191 127 127 0
-0.870242 -0.025746 -0.174469 76 0 153
-0.753930 0.346145 -0.056059 255 0 0
-0.852620 0.273990 -0.074324 76 0 153
0.489157 0.346145 0.045314 255 0 0
0.320860 0.165522 0.066572 0 127 127
-0.303476 0.346145 -0.119640 255 0 0
0.061511 -0.056183 -0.147288 204 51 127
0.466813 0.321773 0.006567 255 0 0
0.061511 -0.077592 0.089998 204 51 127
0.165317 -0.312190 0.258564 127 127 0
0.340879 -0.373045 -0.115199 76 153 0
0.076930 -0.303401 0.159648 204 51 127
0.094552 0.018460 0.167005 153 0 76
-0.035299 0.002831 -0.237049 0 255 0
0.212854 0.328523 -0.108035 255 0 0
-0.398560 0.328523 -0.170154 255 0 0
0.484435 0.181314 -0.016367 153 0 76
0.094552 -0.114384 0.055838 204 51 127
0.484435 -0.288310 0.108014 153 0 76
0.104074 -0.398869 0.114134 255 0 0
0.088751 0.095527 -0.199603 153 76 0
-0.852620 -0.318421 -0.176662 76 0 153
0.295544 0.346145 -0.054301 255 0 0
-0.833209 -0.090375 -0.237049 0 255 0
0.251794 -0.373045 -0.066719 76 153 0
0.061511 -0.342054 -0.229785 204 51 127
0.062575 0.298967 0.258564 204 51 127
-0.852620 -0.215767 -0.223714 76 0 153
0.397148 0.309401 -0.256213 0 0 255
-0.474823 0.346145 -0.188125 255 0 0
0.061511 -0.286085 -0.031729 204 51 127
0.419106 0.162217 0.102106 0 127 127
0.435184 -0.376349 0.117812 76 153 0
0.286267 -0.376349 -0.024432 76 153 0
0.094552 -0.118350 0.101653 204 51 127
0.221278 -0.152853 -0.256213 0 0 255
0.481134 0.145430 0.258564 204 51 127
-0.852620 -0.000606 -0.084408 76 0 153
-0.402781 0.346145 0.087757 255 0 0
0.158385 -0.240968 -0.256213 0 0 255
0.102767 -0.398869 -0.156875 255 0 0
-0.420716 -0.099201 -0.237049 0 255 0
0.187859 -0.430325 0.215611 76 0 153
-0.852620 -0.003047 -0.126573 76 0 153
0.146885 -0.077977 0.258564 153 0 76
0.149615 0.162217 0.230264 204 51 127
0.043889 -0.197627 -0.022314 204 51 127
0.391096 0.165522 -0.051605 0 127 127
0.433772 -0.163153 -0.037827 0 0 255
0.061511 -0.173853 -0.238908 204 51 127
0.193328 -0.087651 0.223321 153 0 76
0.222797 -0.080771 -0.254671 0 0 255
-0.870242 -0.457473 -0.110401 76 0 153
0.331363 0.088090 0.223321 76 153 0
0.450562 0.165522 -0.163111 0 127 127
-0.852620 0.100286 -0.157896 76 0 153
0.085639 -0.064684 0.240943 153 0 76
0.092637 0.165522 -0.116793 127 127 0
0.484435 -0.440727 0.174615 153 0 76
0.330997 0.328523 0.304705 255 0 0
0.043889 -0.312737 -0.134958 204 51 127
0.061511 -0.074731 -0.059801 204 51 127
-0.870242 -0.091028 -0.025654 76 0 153
0.428488 -0.033902 0.258564 76 153 0
-0.382519 0.328523 0.022347 255 0 0
0.043889 0.150337 0.099389 204 51 127
-0.673131 -0.163332 -0.237049 0 255 0
0.433772 0.237929 0.224212 204 51 127
0.323078 -0.010746 0.258564 76 153 0
0.433772 -0.281180 0.036606 127 0 127
0.451394 -0.293878 -0.059380 127 0 127
0.092102 0.328523 -0.129520 255 0 0
0.024317 0.328523 -0.079357 255 0 0
0.252196 -0.373045 0.103240 76 153 0
0.386810 -0.193523 0.196815 0 255 0
0.164947 0.301135 0.258564 204 51 127
0.366502 -0.398869 0.205370 255 0 0
0.360530 0.165522 0.079362 0 127 127
0.120068 -0.371778 -0.256213 0 0 255
0.269345 -0.398869 -0.089513 255 0 0
0.223245 -0.280993 -0.199603 0 127 127
0.068014 -0.060872 -0.254671 204 51 127
0.084085 -0.262909 0.217769 127 127 0
0.337233 -0.083387 -0.185887 255 0 0
0.318620 0.346145 0.052362 255 0 0
-0.564638 0.328523 -0.003724 255 0 0
-0.561437 0.328523 -0.119371 255 0 0
-0.203239 0.328523 0.085401 255 0 0
0.426782 0.126695 -0.254671 0 0 255
0.528489 0.344780 0.265487 255 0 0
0.466813 0.312021 0.133208 153 0 76
0.451394 -0.309774 0.115987 127 0 127
0.155062 0.328523 0.177839 255 0 0
0.271823 -0.164027 -0.181981 255 0 0
0.380032 0.162217 0.201924 0 127 127
0.245003 -0.015446 -0.199603 76 0 153
0.357023 0.133383 0.240943 76 153 0
-0.870242 -0.312538 0.112304 76 0 153
0.451394 -0.374506 0.149005 76 153 0
0.126955 -0.366094 -0.181981 76 153 0
0.208486 -0.043826 -0.254671 0 0 255
0.141070 -0.083387 -0.199262 255 0 0
-0.878398 0.328523 0.178350 76 0 153
-0.870242 -0.379349 0.010113 76 0 153
0.271061 -0.365187 -0.199603 76 153 0
-0.852620 -0.435065 0.148680 76 0 153
0.466813 -0.039945 -0.043256 153 0 76
-0.464477 0.328523 -0.087993 255 0 0
-0.852620 -0.129072 0.028879 76 0 153
0.484435 -0.143636 -0.252318 153 0 76
0.449996 0.037095 0.258564 76 153 0
0.043889 -0.201677 0.043964 204 51 127
0.061511 0.312723 -0.155997 204 51 127
0.061511 0.125018 0.145038 204 51 127
-0.630297 0.346145 -0.104307 255 0 0
-0.303995 0.346145 -0.085379 255 0 0
0.339795 0.052788 -0.254671 0 0 255
0.451394 -0.157169 -0.179643 0 0 255
0.077058 0.103238 -0.256213 0 0 255
0.189559 0.346145 0.259059 255 0 0
0.043889 -0.385437 -0.185527 204 51 127
0.263466 -0.398869 0.029649 255 0 0
0.142635 -0.398869 -0.221816 255 0 0
-0.546165 0.346145 0.043674 255 0 0
0.043889 -0.469749 0.125186 204 51 127
-0.308819 0.328523 0.136081 255 0 0
0.199560 0.207949 0.258564 204 51 127
0.246591 -0.285400 0.258564 127 127 0
-0.870242 0.125099 0.119494 76 0 153
0.322712 -0.017305 -0.041818 76 0 153
0.450422 -0.475472 0.227900 76 0 153
0.451394 0.264218 -0.017960 0 255 0
0.266502 -0.017305 0.228835 76 153 0
0.466813 -0.298958 -0.175855 153 0 76
0.094552 0.013375 0.102484 153 0 76
0.387184 -0.029610 0.248807 153 0 76
-0.870242 -0.283707 -0.127101 76 0 153
-0.261571 0.348678 0.314931 255 0 0
-0.852620 0.092080 0.192166 76 0 153
0.466813 0.126604 0.113450 153 0 76
-0.307192 0.346145 -0.024186 255 0 0
-0.870242 0.091992 -0.197244 76 0 153
-0.852620 -0.095068 0.163558 76 0 153
0.077602 -0.262909 0.049452 127 127 0
-0.537623 0.328523 0.261387 255 0 0
0.299002 -0.398869 -0.124376 255 0 0
0.416296 -0.475472 0.224600 76 0 153
0.466813 -0.299358 0.212977 153 0 76
0.433772 0.015089 -0.003181 76 0 153
0.076930 -0.195493 0.161201 0 255 0
0.245288 0.346145 0.091760 255 0 0
0.078366 -0.398869 0.042949 255 0 0
0.156053 0.207691 0.240943 204 51 127
0.061511 -0.090983 0.035164 204 51 127
0.146991 -0.373045 0.118960 76 153 0
-0.870242 0.002884 0.135385 76 0 153
0.098810 0.199820 -0.199603 127 127 0
0.332718 -0.307653 0.258564 127 127 0
0.466813 -0.212940 0.118524 153 0 76
-0.852620 -0.343808 0.207302 76 0 153
-0.852620 -0.411981 -0.047996 76 0 153
-0.571823 0.346145 -0.235117 255 0 0
-0.870242 0.004571 0.207359 76 0 153
0.094552 0.237010 0.056524 127 127 0
-0.403941 0.346145 -0.093509 255 0 0
0.484435 -0.330217 0.046968 153 0 76
-0.852620 0.035488 -0.028395 76 0 153
0.433772 -0.369837 0.018942 76 153 0
0.484435 -0.127764 -0.161866 153 0 76
-0.870263 0.346145 -0.191280 255 0 0
0.216428 -0.306274 0.223321 127 127 0
0.342908 -0.373045 -0.164425 76 153 0
0.061511 -0.339761 0.091048 204 51 127
0.455091 -0.398869 0.239183 255 0 0
-0.175766 0.346145 0.161251 255 0 0
0.376890 -0.398869 -0.198583 255 0 0
0.433772 0.250363 0.090095 0 255 0
0.394705 -0.193523 -0.048131 0 255 0
-0.340458 -0.157683 -0.254671 0 255 0
0.451394 0.067232 -0.165067 76 0 153
-0.852620 0.211524 0.078575 76 0 153
-0.870242 -0.123308 0.135011 76 0 153
-0.852620 -0.269956 0.049816 76 0 153
0.061511 -0.309505 0.117672 204 51 127
0.094552 -0.121296 -0.020155 204 51 127
0.076930 0.062929 0.216049 153 0 76
-0.270559 0.328523 -0.173840 255 0 0
0.484435 -0.023694 -0.080220 153 0 76
0.111276 0.346145 -0.161379 255 0 0
0.262791 -0.117929 -0.199603 255 0 0
-0.516534 0.328523 -0.017063 255 0 0
0.482287 -0.053562 0.258564 153 0 76
0.216289 -0.373045 0.105090 76 153 0
0.346423 -0.014001 0.226822 76 0 153
0.138482 0.328523 -0.038971 255 0 0
-0.721081 0.004685 -0.254671 0 255 0
0.247324 -0.352357 -0.256213 0 0 255
0.433772 -0.300295 -0.029022 127 0 127
0.382056 -0.017305 0.155210 76 0 153
0.018956 0.339762 0.323545 255 0 0
0.484435 0.146878 -0.253161 153 0 76
-0.860212 -0.475472 0.169189 76 0 153
0.076930 -0.352540 -0.197561 127 127 0
0.398487 0.265971 0.258564 204 51 127
0.218485 0.346145 -0.163006 255 0 0
-0.514753 0.328523 0.294945 255 0 0
-0.727023 -0.154090 -0.254671 0 255 0
-0.534722 0.328523 -0.167117 255 0 0
0.044131 -0.475472 0.013111 204 51 127
0.084211 0.275658 -0.136116 127 127 0
0.209643 0.025147 -0.181981 153 76 0
-0.870242 -0.280310 0.102920 76 0 153
0.115888 0.266569 0.223321 204 51 127
0.433772 0.263703 0.159194 0 255 0
0.094552 0.010067 -0.157932 153 0 76
0.201080 -0.234645 0.240943 127 127 0
0.311147 -0.312315 -0.256213 0 0 255
0.297981 -0.415359 0.233233 76 0 153
0.062907 -0.381247 -0.112714 255 0 0
0.405675 -0.013283 -0.199603 153 76 0
0.257469 -0.398869 -0.242774 255 0 0
0.130183 -0.304788 -0.256213 0 0 255
0.484435 -0.410425 -0.049980 153 0 76
0.466813 0.283202 0.031631 153 0 76
0.227642 0.346145 0.014895 255 0 0
-0.852620 -0.439745 0.209931 76 0 153
0.451394 0.094389 0.171596 76 0 153
0.043889 -0.247554 0.087791 204 51 127
0.466813 -0.216226 -0.130260 153 0 76
0.466813 0.212269 0.067493 153 0 76
-0.870242 -0.065670 0.141990 76 0 153
0.484435 -0.164909 0.099926 153 0 76
0.228286 0.299750 -0.254671 0 0 255
-0.852620 -0.138150 -0.171646 76 0 153
0.466813 -0.151032 0.041089 153 0 76
0.466813 -0.268835 -0.038678 153 0 76
0.061511 0.098484 -0.225401 204 51 127
-0.852620 -0.160512 -0.122726 76 0 153
-0.153146 0.346145 -0.154305 255 0 0
0.385880 0.328523 -0.029268 255 0 0
0.061511 0.038346 -0.084661 204 51 127
0.061511 0.300205 0.195941 204 51 127
-0.881871 0.346145 -0.154937 255 0 0
-0.144117 0.346145 0.250699 255 0 0
-0.454805 0.346145 0.057019 255 0 0
0.287365 -0.212926 0.258564 127 127 0
-0.870242 0.144366 -0.183509 76 0 153
0.339218 0.162217 0.155228 0 127 127
0.391310 0.187140 -0.254671 0 0 255
-0.852886 -0.475472 -0.045268 76 0 153
-0.870242 0.004544 -0.016211 76 0 153
0.094552 0.237674 -0.018964 127 127 0
0.361696 -0.373045 -0.013226 76 153 0
-0.299067 0.328523 0.221634 255 0 0
0.201765 -0.398869 -0.099926 255 0 0
0.429065 -0.376349 -0.191723 127 0 127
0.416632 0.328523 -0.157654 255 0 0
0.466813 -0.261744 -0.232854 153 0 76
0.466813 0.178978 0.234080 153 0 76
0.451394 0.218789 -0.182796 153 0 76
0.087959 0.346145 -0.256338 255 0 0
0.122258 -0.196827 -0.104005 0 255 0
0.248628 0.097436 0.258564 76 153 0
-0.065120 0.328523 0.224319 255 0 0
0.499239 0.328523 -0.088492 255 0 0
-0.387756 0.346145 0.050070 255 0 0
0.451394 -0.306332 -0.136580 127 0 127
0.433772 -0.084301 0.087700 0 0 255
-0.830999 -0.033607 -0.237049 0 255 0
0.043889 -0.016761 -0.147885 204 51 127
0.181148 -0.196827 -0.026231 0 255 0
-0.282833 -0.136816 -0.237049 0 255 0
-0.870242 0.184283 -0.030621 76 0 153
0.076930 0.059168 -0.120353 153 0 76
0.217641 -0.398869 0.193061 255 0 0
0.484435 0.036292 -0.188445 153 0 76
-0.451293 0.328523 -0.128505 255 0 0
0.466813 -0.248564 -0.116632 153 0 76
-0.151762 0.346145 0.042580 255 0 0
0.061511 -0.416916 0.120383 204 51 127
0.387967 0.328523 0.084256 255 0 0
-0.852620 -0.088858 -0.202002 76 0 153
-0.000877 0.346145 -0.248230 255 0 0
0.068295 -0.164657 0.258564 153 0 76
-0.626434 0.328523 0.007682 255 0 0
0.484435 -0.343994 -0.005597 153 0 76
0.302127 0.165522 0.113651 0 127 127
-0.008925 0.024798 -0.254671 0 255 0
0.286802 0.165522 0.233982 204 51 127
0.001467 0.328523 -0.192628 255 0 0
0.435542 -0.398869 -0.091139 255 0 0
-0.852620 -0.400339 0.100274 76 0 153
-0.298675 0.346145 0.092728 255 0 0
0.043889 -0.262449 -0.185195 204 51 127
0.500249 0.348678 0.307595 255 0 0
0.292378 0.262417 0.240943 204 51 127
0.367527 -0.398869 0.125320 255 0 0
0.256019 -0.144215 0.258564 153 0 76
0.349912 -0.196827 -0.106953 0 255 0
0.466813 0.038333 0.125408 153 0 76
0.199644 0.328523 -0.258211 0 0 255
0.466813 -0.360927 -0.222264 153 0 76
0.166890 -0.268395 -0.199603 0 127 127
0.078960 -0.210043 0.249773 127 127 0
0.209760 -0.376349 -0.155378 255 0 0
0.043889 -0.118973 0.219841 204 51 127
0.466813 0.230540 0.017967 153 0 76
0.111149 -0.398869 -0.101630 255 0 0
-0.095110 0.328523 0.293051 255 0 0
0.400128 -0.373045 -0.043256 76 153 0
-0.861532 0.346145 -0.007594 255 0 0
0.172524 0.265440 0.258564 204 51 127
0.484435 0.099387 -0.241283 153 0 76
0.271739 -0.398869 0.198051 255 0 0
0.141202 0.328523 0.066518 255 0 0
0.263653 0.291712 0.258564 204 51 127
0.121425 -0.083387 0.236005 153 0 76
0.122144 0.094475 0.223321 76 153 0
0.394966 -0.014001 0.033702 76 0 153
-0.099672 0.014556 -0.254671 0 255 0
-0.417506 0.346145 0.186614 255 0 0
-0.609703 0.328523 -0.286020 255 0 0
0.069018 0.193313 0.240943 127 127 0
0.342922 0.167575 0.258564 204 51 127
-0.873867 0.341051 -0.286048 255 0 0
0.484435 0.191114 0.127480 153 0 76
0.484435 -0.255397 0.228329 153 0 76
-0.870242 0.307996 0.238356 76 0 153
0.169922 0.016917 -0.181981 153 76 0
0.125127 0.184865 0.258564 204 51 127
0.264513 -0.309680 -0.199603 0 127 127
0.179591 0.100418 0.258564 76 153 0
0.322633 0.328523 -0.038324 255 0 0
-0.870242 0.145548 -0.221008 76 0 153
-0.903283 0.329476 0.293872 255 0 0
0.011181 0.328523 -0.038307 255 0 0
0.471026 -0.475472 0.049887 153 0 76
-0.116851 0.346145 -0.211002 255 0 0
0.304299 0.230166 -0.199603 127 0 127
0.484435 -0.426735 0.140139 153 0 76
0.311404 0.110239 -0.256213 0 0 255
0.333077 0.270710 -0.254671 0 0 255
-0.511553 0.328523 -0.135715 255 0 0
-0.852620 0.198339 -0.131203 76 0 153
-0.044040 0.328523 -0.033678 255 0 0
0.241582 0.240805 -0.256213 0 0 255
0.114916 -0.398869 0.022113 255 0 0
-0.805029 0.328523 0.188166 255 0 0
0.043889 -0.275517 -0.254404 204 51 127
0.400693 -0.193523 0.017581 0 255 0
0.076529 -0.398869 -0.084758 255 0 0
0.043889 -0.160382 0.205586 204 51 127
0.397918 -0.360425 -0.256213 0 0 255
-0.152826 0.328523 0.289682 255 0 0
0.293629 0.001771 0.223321 76 153 0
0.088620 -0.374280 0.240943 76 153 0
0.339891 0.322172 -0.256213 255 0 0
0.512504 0.328523 0.143352 255 0 0
0.043889 -0.122879 0.157982 204 51 127
-0.465568 0.346145 0.258655 255 0 0
0.190149 0.126560 -0.256213 0 0 255
0.104517 0.165522 -0.007966 0 127 127
0.061511 -0.446317 0.065536 204 51 127
0.406628 -0.398869 0.017060 255 0 0
-0.870242 -0.327204 -0.221330 76 0 153
0.261731 -0.202293 -0.254671 0 0 255
-0.685964 0.346145 -0.089846 255 0 0
-0.870242 -0.249231 0.008387 76 0 153
0.246633 -0.398869 0.229831 255 0 0
0.399049 -0.398869 -0.120246 255 0 0
0.287171 -0.381247 0.149943 76 153 0
0.043889 0.026932 0.171528 204 51 127
0.043889 0.146910 0.061610 204 51 127
0.094552 0.196083 0.165816 127 127 0
0.282140 -0.269430 -0.199603 0 127 127
0.357077 -0.085143 0.223321 153 0 76
0.274450 0.162217 0.042091 0 127 127
0.043889 0.020799 0.063791 204 51 127
0.484435 0.050821 0.063457 153 0 76
-0.389657 0.328523 0.241315 255 0 0
-0.160637 -0.023961 -0.237049 0 255 0
0.484435 -0.206782 -0.251391 153 0 76
0.285443 -0.305703 0.223321 127 127 0
0.396349 0.328523 0.173590 255 0 0
-0.852620 -0.253422 0.116704 76 0 153
-0.732027 0.328523 -0.120748 255 0 0
0.300317 -0.196827 0.151828 0 255 0
0.299118 0.328523 0.200592 255 0 0
0.061511 -0.442405 0.184194 204 51 127
0.234375 -0.196827 0.164665 0 255 0
-0.852620 -0.195747 0.031129 76 0 153
0.280021 -0.196827 0.049190 0 255 0
0.164448 0.328523 -0.193890 255 0 0
0.385605 -0.017305 0.099603 76 0 153
0.302570 -0.101626 0.258564 153 0 76
0.524312 0.348678 -0.006853 255 0 0
0.377587 -0.147258 0.258564 153 0 76
0.111916 -0.352411 0.258564 127 127 0
0.426984 0.323616 -0.254671 255 0 0
0.061511 -0.440456 -0.156232 204 51 127
-0.732736 0.333739 0.323545 255 0 0
0.451394 -0.007532 0.150344 76 0 153
0.449808 0.094481 -0.199603 76 0 153
-0.870242 -0.230364 -0.119613 76 0 153
0.466813 0.288069 -0.033763 153 0 76
0.484435 -0.249269 0.053722 153 0 76
0.466813 -0.058866 -0.252430 153 0 76
0.433772 -0.354542 -0.121627 127 0 127
0.303557 -0.398869 -0.218471 255 0 0
0.484435 0.116796 0.205695 153 0 76
0.061511 0.101571 0.228480 76 153 0
-0.610438 0.346145 0.185562 255 0 0
-0.852620 -0.161340 -0.018923 76 0 153
0.395747 -0.373045 0.086761 76 153 0
-0.799848 0.328523 -0.157906 255 0 0
0.194408 -0.014001 0.066829 76 0 153
0.149613 0.062487 -0.181981 153 76 0
-0.826559 0.328523 -0.010148 255 0 0
0.484435 -0.079540 0.168305 153 0 76
0.191040 0.165522 0.106019 0 127 127
0.263400 0.055892 0.223321 76 153 0
0.483333 -0.330705 0.251158 127 127 0
0.466813 0.212899 0.109100 153 0 76
0.105977 -0.398869 0.167379 255 0 0
0.043889 0.048857 -0.053053 204 51 127
0.235319 -0.127957 -0.181981 255 0 0
0.094552 -0.347162 0.150898 127 127 0
0.043889 -0.390755 0.174327 204 51 127
0.076930 -0.323315 -0.050852 127 127 0
-0.804418 0.328523 -0.038083 255 0 0
0.386174 -0.180128 -0.256213 0 0 255
0.154152 -0.196827 0.062374 0 255 0
0.451275 -0.193523 0.040184 0 255 0
0.198025 0.328523 -0.136765 255 0 0
0.451394 -0.345731 0.223929 127 0 127
0.061511 0.101845 -0.071580 204 51 127
0.167210 0.210718 -0.256213 0 0 255
-0.852620 0.305351 0.069703 76 0 153
0.061511 0.322497 -0.240746 255 0 0
0.237091 0.165522 0.125345 0 127 127
0.294362 -0.069155 0.240943 153 0 76
0.172709 -0.355700 -0.256213 0 0 255
0.061511 0.213798 0.015006 127 127 0
-0.852620 -0.446859 0.008385 76 0 153
0.204242 -0.373045 0.140036 76 153 0
0.256619 -0.014001 -0.122271 76 0 153
0.077055 0.165522 -0.151865 127 127 0
0.349635 -0.318155 -0.254671 0 0 255
-0.596062 0.328523 -0.040205 255 0 0
0.194451 0.022658 -0.254671 0 0 255
0.193741 0.346145 0.293899 255 0 0
0.076930 0.197418 -0.036630 204 51 127
0.466813 0.003181 0.217724 153 0 76
0.313788 0.162217 -0.008683 0 127 127
0.061511 -0.157293 -0.008113 204 51 127
0.305184 -0.345230 -0.181981 0 127 127
0.438160 0.328523 0.184332 255 0 0
0.223982 -0.014001 0.127972 76 0 153
-0.852620 -0.057323 0.240443 76 0 153
-0.870242 0.264152 -0.231951 76 0 153
0.307938 -0.104645 -0.254671 0 0 255
0.282668 0.162217 -0.136999 0 127 127
-0.852620 0.210783 -0.178608 76 0 153
-0.852620 0.320383 -0.205289 76 0 153
-0.159717 0.346145 0.128967 255 0 0
-0.852620 -0.151545 0.072903 76 0 153
0.401918 0.165522 0.228830 0 127 127
0.466813 -0.388573 0.188163 153 0 76
0.061511 -0.102569 -0.081677 204 51 127
0.451394 -0.183698 -0.113981 0 0 255
0.333699 -0.014001 0.109951 76 0 153
0.197527 -0.373045 -0.041532 76 153 0
0.505341 0.328523 -0.179092 255 0 0
0.405798 -0.302155 -0.256213 0 0 255
0.447571 0.275658 -0.076451 0 255 0
0.466813 -0.306075 0.144003 153 0 76
-0.852620 -0.256767 -0.098112 76 0 153
0.165526 -0.398869 -0.087921 255 0 0
0.333068 -0.091355 0.258564 153 0 76
-0.870242 0.084468 -0.073210 76 0 153
0.466813 -0.468353 -0.067328 153 0 76
-0.870242 0.176331 0.021761 76 0 153
0.466813 0.060882 0.192180 153 0 76
-0.642515 0.328523 -0.167910 255 0 0
0.094552 0.241830 0.195289 127 127 0
-0.246110 0.328523 -0.024754 255 0 0
0.200552 0.119194 0.240943 76 153 0
0.153368 -0.387213 0.253983 127 127 0
0.419033 -0.196827 -0.073644 0 255 0
-0.870242 -0.314207 -0.072826 76 0 153
0.162708 0.328523 0.014823 255 0 0
0.061511 0.103585 -0.173470 204 51 127
-0.589332 0.346145 0.092242 255 0 0
-0.870242 -0.022655 0.062465 76 0 153
0.201374 -0.381247 -0.216479 255 0 0
-0.835977 0.328523 0.125900 255 0 0
0.252669 0.162217 0.065657 0 127 127
0.282145 0.275658 -0.196141 127 0 127
0.085966 -0.368899 -0.256213 0 0 255
0.076930 0.203511 0.111291 127 127 0
-0.218483 -0.151744 -0.254671 0 255 0
-0.870242 -0.468912 0.060036 76 0 153
-0.080870 0.346145 -0.030916 255 0 0
-0.895128 0.328523 -0.104027 255 0 0
0.318173 0.013410 -0.199603 153 76 0
0.222732 0.328523 0.304278 255 0 0
0.466813 0.204525 0.153213 153 0 76
-0.521472 0.346145 -0.210208 255 0 0
0.253479 0.346145 0.239129 255 0 0
0.484435 -0.200710 -0.024513 153 0 76
0.043889 -0.310649 -0.016024 204 51 127
0.212813 -0.275390 -0.256213 0 0 255
0.433772 0.062248 0.191378 76 0 153
0.002764 0.346145 0.117962 255 0 0
0.484435 -0.333309 -0.077362 153 0 76
0.028265 0.328523 -0.124438 255 0 0
0.230531 -0.193523 -0.088810 0 255 0
0.258511 -0.295260 -0.256213 0 0 255
-0.870242 0.115119 -0.031068 76 0 153
-0.351391 0.346145 0.095116 255 0 0
-0.195335 0.037763 -0.249872 0 255 0
0.261038 -0.092105 0.223321 153 0 76
0.101335 0.248288 0.258564 204 51 127
-0.354713 0.328523 0.122418 255 0 0
0.433772 0.172260 0.165476 0 255 0
0.254877 -0.017305 0.037799 76 0 153
0.108231 -0.193523 0.077837 0 255 0
0.166871 -0.123127 -0.199603 255 0 0
0.291482 0.185809 -0.199603 127 0 127
0.094552 0.251260 -0.067513 127 127 0
0.351257 0.202803 -0.181981 127 0 127
0.022948 0.328523 0.080249 255 0 0
0.123087 0.328523 -0.081102 255 0 0
0.223345 0.216721 0.223321 204 51 127
0.192860 0.152101 0.240943 76 153 0
0.243893 -0.398869 -0.016658 255 0 0
0.223256 -0.133215 0.223321 153 0 76
0.107139 0.346145 0.018164 255 0 0
0.301669 0.226135 -0.256213 0 0 255
0.459070 0.289314 0.258564 204 51 127
0.466813 -0.424967 -0.221768 153 0 76
-0.870242 -0.095692 -0.252076 76 0 153
-0.898865 0.328523 0.123003 255 0 0
0.430159 -0.196827 0.095682 0 255 0
0.466813 -0.177732 -0.047780 153 0 76
0.476303 0.346145 -0.035238 255 0 0
0.129374 0.264163 0.258564 204 51 127
0.426554 0.346145 -0.052364 255 0 0
-0.870242 0.170500 0.204901 76 0 153
0.466813 0.022506 -0.138743 153 0 76
0.319299 0.239405 0.223321 204 51 127
0.433772 0.059566 -0.066212 76 0 153
0.466813 0.251076 0.124154 153 0 76
0.094552 -0.335956 0.002164 127 127 0
-0.852620 -0.029716 -0.029710 76 0 153
-0.870242 0.326391 -0.049565 255 0 0
0.172344 -0.398869 0.104819 255 0 0
0.379867 -0.060359 0.258564 153 0 76
0.400417 -0.376349 0.171086 76 153 0
-0.082618 0.346145 -0.168861 255 0 0
0.466813 -0.003594 0.036483 153 0 76
-0.870242 -0.380637 -0.184805 76 0 153
0.466813 0.132603 0.001298 153 0 76
0.170328 -0.398869 0.213836 76 0 153
-0.150459 0.346145 -0.217321 255 0 0
0.484435 0.097551 0.114679 153 0 76
0.418829 -0.067809 -0.256213 0 0 255
0.265574 0.346145 0.021095 255 0 0
0.484435 0.258719 -0.005874 153 0 76
-0.036959 0.328942 -0.286048 255 0 0
0.361998 0.090158 -0.254671 0 0 255
-0.102029 -0.178104 -0.252307 0 255 0
0.109869 0.090726 0.258564 76 153 0
0.466813 0.149052 0.091033 0 127 127
0.408093 -0.381247 -0.144976 76 153 0
-0.870242 0.322737 -0.241546 76 0 153
0.043889 0.159952 0.168021 204 51 127
0.044639 -0.243232 -0.254671 204 51 127
0.433772 -0.116690 -0.177788 255 0 0
0.393772 -0.303928 0.258564 127 127 0
0.076930 -0.268370 -0.127323 127 127 0
0.126910 -0.113903 0.223321 153 0 76
-0.776378 -0.100162 -0.237049 0 255 0
0.396776 0.346910 0.323545 255 0 0
0.061511 -0.301315 -0.223074 204 51 127
0.043889 0.216545 -0.112853 204 51 127
0.274078 0.182419 -0.254671 0 0 255
0.269129 -0.242992 -0.254671 0 0 255
0.186141 0.165522 -0.157472 0 127 127
0.061511 0.112728 0.110500 204 51 127
0.378893 0.133731 -0.254671 0 0 255
0.484435 -0.109018 -0.103351 153 0 76
-0.272938 0.346145 0.260704 255 0 0
-0.795158 0.328523 0.032704 255 0 0
0.378169 -0.212832 0.258564 153 0 76
0.466813 0.044353 -0.231532 153 0 76
0.373825 0.346145 0.202758 255 0 0
0.466813 -0.439745 -0.090389 153 0 76
-0.081287 -0.094640 -0.237049 0 255 0
0.043889 -0.142699 -0.063881 204 51 127
0.085156 -0.006790 -0.254671 0 0 255
0.450037 -0.346762 -0.254671 0 0 255
-0.428743 0.346145 -0.239951 255 0 0
-0.440606 0.343093 -0.286048 255 0 0
-0.870242 -0.342580 0.169192 76 0 153
0.466813 -0.159303 -0.142587 153 0 76
-0.870242 -0.404791 0.168356 76 0 153
-0.852620 -0.444663 -0.083823 76 0 153
-0.297293 0.346145 -0.234900 255 0 0
-0.384204 0.328523 0.142825 255 0 0
0.178925 -0.193523 -0.087868 0 255 0
0.090709 -0.017305 -0.172942 76 0 153
0.484435 -0.235693 -0.223626 153 0 76
0.061511 0.180497 0.127799 127 127 0
0.061511 -0.333794 0.151555 127 127 0
0.294614 0.009776 -0.254671 0 0 255
0.409219 -0.318550 0.223321 127 127 0
-0.870242 -0.092767 0.196009 76 0 153
0.484435 0.082793 0.145534 153 0 76
0.484435 0.316755 0.079436 153 0 76
0.484435 -0.460756 -0.012657 153 0 76
0.466813 -0.010240 0.108377 153 0 76
0.076930 0.027614 -0.181610 153 0 76
0.043889 0.157419 -0.022147 204 51 127
-0.050209 0.328523 0.172567 255 0 0
-0.551113 0.328523 0.208953 255 0 0
0.455174 0.280074 -0.256213 0 0 255
0.284221 0.010800 -0.181981 153 76 0
-0.852620 0.153867 0.154609 76 0 153
0.043889 -0.260833 -0.019507 204 51 127
0.466813 0.110595 -0.100318 153 0 76
0.419548 -0.014001 0.167287 76 0 153
-0.028299 0.328523 0.003314 255 0 0
0.094552 -0.264621 0.175781 127 127 0
0.433772 -0.371219 -0.015884 76 153 0
0.076930 0.068363 0.017770 153 0 76
-0.361818 -0.108555 -0.254671 0 255 0
-0.319333 0.328523 -0.217700 255 0 0
0.321324 -0.398869 0.209405 255 0 0
-0.248139 0.016294 -0.237049 0 255 0
0.080068 -0.014001 0.098079 76 0 153
-0.607049 0.328523 -0.092996 255 0 0
0.063805 0.346145 0.005279 255 0 0
-0.144421 0.009793 -0.237049 0 255 0
-0.494910 0.346145 0.024651 255 0 0
0.061511 -0.225714 0.186422 204 51 127
0.056227 -0.475472 0.158367 204 51 127
0.451394 0.195685 -0.119351 153 0 76
-0.418239 0.335172 0.323545 255 0 0
0.043889 -0.047584 0.090178 204 51 127
0.043889 -0.216415 0.085343 204 51 127
0.528489 0.335980 0.059336 255 0 0
-0.684055 0.346145 -0.208999 255 0 0
0.371816 0.013680 -0.181981 153 76 0
0.146892 -0.017305 0.021426 76 0 153
-0.408457 0.346145 -0.046067 255 0 0
-0.640322 0.328523 0.270803 255 0 0
0.061511 -0.138344 -0.156733 204 51 127
0.138277 0.162217 0.169311 0 127 127
-0.852620 0.154236 -0.085823 76 0 153
0.043889 -0.284385 -0.074901 204 51 127
-0.709720 -0.097992 -0.237049 0 255 0
0.448522 -0.398869 -0.253903 255 0 0
0.346209 0.054142 0.240943 76 153 0
-0.112009 0.346145 0.243759 255 0 0
0.066240 -0.133544 0.258564 153 0 76
0.061511 -0.270383 0.162916 204 51 127
0.501382 0.328523 0.016630 255 0 0
0.273181 -0.055951 -0.256213 0 0 255
0.291730 -0.193523 0.083429 0 255 0
0.484435 -0.321606 -0.118892 153 0 76
0.061511 -0.341384 0.207110 204 51 127
0.315134 -0.373045 -0.146572 76 153 0
0.227423 -0.340477 0.258564 127 127 0
0.312980 0.165522 -0.159999 0 127 127
-0.852620 -0.339065 -0.125862 76 0 153
0.164600 -0.011991 -0.254671 0 0 255
0.482591 -0.262576 0.258564 127 127 0
-0.183107 0.328523 -0.202021 255 0 0
0.077273 -0.083387 -0.192533 204 51 127
0.104347 -0.148174 -0.256213 0 0 255
0.433772 -0.115617 0.213905 0 0 255
0.298557 -0.398869 -0.078842 255 0 0
0.061511 0.080232 -0.103453 204 51 127
0.250630 0.346145 0.292775 255 0 0
0.466813 -0.107166 0.103154 153 0 76
-0.233839 -0.023574 -0.254671 0 255 0
0.194165 -0.376349 -0.002661 255 0 0
0.466813 0.108717 -0.047448 153 0 76
0.329066 -0.376349 0.112874 76 153 0
0.466813 -0.237866 0.144934 153 0 76
-0.038508 0.346145 0.291371 255 0 0
0.466813 0.058818 -0.203194 153 0 76
-0.870242 -0.256749 -0.066923 76 0 153
-0.407375 -0.041598 -0.254671 0 255 0
0.282139 -0.014001 -0.018580 76 0 153
0.043889 -0.105121 -0.151416 204 51 127
0.061511 -0.098597 0.148364 204 51 127
-0.307426 0.328523 0.030475 255 0 0
0.165117 0.287617 -0.256213 0 0 255
0.388991 0.162217 -0.118058 0 127 127
0.122350 -0.193523 -0.040849 0 255 0
0.209091 -0.014001 -0.096271 76 0 153
-0.474661 0.348678 0.315922 255 0 0
0.061511 -0.039780 0.126300 204 51 127
0.061511 -0.413107 -0.061668 204 51 127
0.484435 0.003232 -0.236527 153 0 76
0.068745 0.265735 -0.254671 0 0 255
-0.668677 0.328523 0.142513 255 0 0
0.043889 0.319710 0.027282 204 51 127
0.451394 -0.133821 0.016487 0 0 255
0.414426 0.346145 -0.087583 255 0 0
0.466813 0.124236 0.056370 153 0 76
-0.639177 0.328523 0.057084 255 0 0
0.428831 0.184949 -0.256213 0 0 255
0.367857 0.237633 0.240943 204 51 127
-0.706591 0.328523 0.144885 255 0 0
0.245475 -0.398869 0.176975 255 0 0
0.094552 -0.116209 -0.156194 204 51 127
0.043889 -0.031604 0.029867 204 51 127
0.280549 0.162217 0.171442 0 127 127
