0.484261 -0.375455 -0.152729 0.500000 0.000000 0.500000
-0.070129 0.210271 -0.210083 0.600000 0.000000 0.300000
-0.444655 -0.574254 0.365289 0.000000 0.500000 0.500000
-0.174665 0.508529 -0.242648 0.000000 0.000000 1.000000
-0.514396 -0.361033 0.108219 0.000000 0.500000 0.500000
-0.492686 0.325725 -0.380852 0.000000 0.500000 0.500000
-0.313378 -0.783601 -0.416327 0.600000 0.000000 0.300000
0.484261 0.228616 0.136664 0.500000 0.000000 0.500000
-0.492686 0.460850 -0.359676 0.000000 0.500000 0.500000
0.421845 -0.492625 -0.190322 0.600000 0.000000 0.300000
0.139418 -0.099029 -0.186759 0.000000 1.000000 0.000000
0.266932 -0.486053 0.332724 0.000000 0.500000 0.500000
-0.514396 -0.138383 0.281068 0.000000 0.500000 0.500000
0.484261 0.456240 -0.271798 0.500000 0.000000 0.500000
-0.167592 -0.050686 0.332666 0.600000 0.000000 0.300000
0.389280 -0.082719 0.132162 0.000000 0.000000 1.000000
0.505971 0.314777 0.037566 0.500000 0.000000 0.500000
0.484261 -0.163928 0.141373 0.500000 0.000000 0.500000
0.505971 -0.058676 0.092660 0.500000 0.000000 0.500000
0.182121 -0.171573 0.332666 0.000000 1.000000 0.000000
0.396294 0.573979 0.331079 0.800000 0.200000 0.500000
0.484261 0.111337 -0.380780 0.500000 0.000000 0.500000
0.243005 0.132117 -0.367480 0.300000 0.600000 0.000000
0.421845 -0.324722 -0.133511 0.600000 0.000000 0.300000
0.505971 -0.050034 -0.152367 0.500000 0.000000 0.500000
-0.228512 -0.211825 0.332666 0.000000 1.000000 0.000000
0.389280 -0.362068 -0.219044 0.600000 0.000000 0.300000
-0.272609 -0.414509 -0.242589 0.300000 0.000000 0.600000
-0.439111 0.485824 0.365230 0.300000 0.000000 0.600000
0.317596 0.291750 0.334890 0.500000 0.000000 0.500000
0.160776 -0.522372 0.047022 0.600000 0.300000 0.000000
0.484261 -0.109696 -0.105313 0.500000 0.000000 0.500000
0.333398 -0.281699 -0.210024 0.300000 0.000000 0.600000
0.484261 -0.345374 0.233372 0.500000 0.000000 0.500000
-0.032138 -0.476795 -0.242589 0.300000 0.000000 0.600000
0.188445 -0.593493 0.365289 0.000000 0.500000 0.500000
-0.116521 0.183200 0.293515 0.300000 0.000000 0.600000
-0.372370 -0.573934 0.104473 0.600000 0.000000 0.300000
0.295261 -0.514231 -0.119194 0.600000 0.300000 0.000000
0.095721 -0.010643 -0.210083 1.000000 0.000000 0.000000
-0.397705 0.555939 -0.190317 0.600000 0.000000 0.300000
0.216153 -0.435417 -0.210024 0.300000 0.000000 0.600000
-0.430270 -0.088808 0.094349 0.800000 0.200000 0.500000
-0.207380 -0.378563 -0.242589 0.300000 0.000000 0.600000
-0.514396 -0.081493 -0.194365 0.000000 0.500000 0.500000
-0.492686 0.342781 -0.223131 0.000000 0.500000 0.500000
0.357181 0.473571 0.251017 1.000000 0.000000 0.000000
-0.525251 0.351165 0.333681 0.300000 0.000000 0.600000
-0.017781 -0.238547 0.365289 0.000000 0.500000 0.500000
-0.334758 -0.427171 -0.210024 0.300000 0.000000 0.600000
-0.429814 0.572876 -0.416327 0.600000 0.300000 0.000000
0.037554 -0.236160 0.365289 0.000000 0.500000 0.500000
0.404184 0.600687 -0.416327 0.600000 0.300000 0.000000
-0.115488 0.594609 0.397795 0.300000 0.000000 0.600000
0.389280 -0.284720 0.116724 0.600000 0.000000 0.300000
0.037206 0.402645 0.397795 0.300000 0.000000 0.600000
-0.397705 -0.400309 0.232223 0.300000 0.600000 0.000000
-0.397705 0.510316 0.023658 0.600000 0.000000 0.300000
0.505971 0.193298 -0.191270 0.500000 0.000000 0.500000
0.059854 0.191342 0.198199 0.300000 0.000000 0.600000
-0.397705 -0.026102 0.052895 0.800000 0.200000 0.500000
0.333366 -0.176855 0.332666 0.000000 1.000000 0.000000
0.408750 0.067413 0.365230 0.600000 0.000000 0.300000
0.484261 0.152917 -0.179384 0.500000 0.000000 0.500000
0.421845 0.163271 0.289516 0.300000 0.600000 0.000000
0.505971 0.581636 0.200187 0.500000 0.000000 0.500000
-0.492686 -0.555468 0.108081 0.000000 0.500000 0.500000
-0.443847 -0.038269 -0.383762 0.300000 0.600000 0.000000
-0.492686 -0.613112 -0.239237 0.000000 0.500000 0.500000
-0.397705 -0.296551 0.037884 0.300000 0.600000 0.000000
-0.178566 -0.579370 0.397854 0.000000 0.500000 0.500000
0.380360 0.465429 0.315488 1.000000 0.000000 0.000000
0.113017 0.576797 0.365230 0.300000 0.000000 0.600000
-0.222846 -0.044011 -0.210083 1.000000 0.000000 0.000000
0.484261 0.365824 0.139688 0.500000 0.000000 0.500000
-0.515614 -0.269473 0.365230 0.300000 0.000000 0.600000
-0.492686 0.209103 0.147648 0.000000 0.500000 0.500000
0.258140 0.302297 0.365230 0.500000 0.000000 0.500000
-0.476334 0.501945 0.365230 0.300000 0.000000 0.600000
0.199693 -0.522372 0.106003 0.600000 0.300000 0.000000
-0.337461 -0.259858 0.365289 0.000000 0.500000 0.500000
0.275145 0.329919 0.332666 0.000000 0.000000 1.000000
-0.439768 0.641823 0.007966 0.600000 0.000000 0.300000
0.080394 -0.091185 -0.210083 1.000000 0.000000 0.000000
-0.245701 0.183200 0.033305 0.300000 0.000000 0.600000
0.291037 0.665293 0.367624 0.300000 0.000000 0.600000
-0.401016 -0.300603 -0.242589 0.300000 0.600000 0.000000
-0.285326 -0.376968 -0.383762 0.300000 0.600000 0.000000
0.484261 0.651421 -0.054080 0.500000 0.000000 0.500000
0.154214 -0.522372 -0.006031 0.600000 0.300000 0.000000
-0.048130 -0.577483 0.365289 0.000000 0.500000 0.500000
-0.514396 0.201215 -0.280553 0.000000 0.500000 0.500000
0.389280 -0.290896 0.330112 0.600000 0.000000 0.300000
0.505971 -0.694569 0.066404 0.800000 0.200000 0.500000
0.159733 0.449750 0.332666 0.300000 0.000000 0.600000
0.505971 -0.497709 -0.276075 0.500000 0.000000 0.500000
-0.065829 0.350802 0.332666 0.000000 0.000000 1.000000
0.332432 0.191342 -0.120322 0.300000 0.000000 0.600000
-0.414597 -0.165458 -0.383762 0.300000 0.600000 0.000000
-0.482865 0.620113 0.331731 0.600000 0.000000 0.300000
-0.430270 -0.344434 -0.204683 0.300000 0.600000 0.000000
0.331992 0.510256 -0.242648 0.000000 0.000000 1.000000
-0.062357 -0.394168 0.409615 0.500000 0.000000 0.500000
0.484261 0.489023 0.206092 0.500000 0.000000 0.500000
-0.339680 -0.522372 0.304076 0.600000 0.300000 0.000000
-0.420771 -0.111883 -0.367480 0.300000 0.600000 0.000000
0.292858 -0.494446 -0.242589 0.300000 0.000000 0.600000
0.400560 -0.481681 -0.383762 0.300000 0.600000 0.000000
-0.046403 0.161613 -0.367480 0.300000 0.600000 0.000000
0.484261 -0.297608 -0.325792 0.500000 0.000000 0.500000
0.294067 -0.085735 -0.210083 1.000000 0.000000 0.000000
-0.370405 0.054524 0.397795 0.600000 0.000000 0.300000
0.214351 0.671995 0.332666 0.800000 0.200000 0.500000
0.361811 0.573979 0.355791 0.300000 0.000000 0.600000
0.505971 -0.088919 0.012412 0.500000 0.000000 0.500000
0.505971 -0.728455 -0.274877 0.800000 0.200000 0.500000
0.484261 0.568372 0.277249 0.500000 0.000000 0.500000
-0.034155 -0.514231 -0.176887 0.600000 0.300000 0.000000
-0.397705 -0.039005 -0.019856 0.800000 0.200000 0.500000
-0.312211 -0.515019 -0.367480 0.300000 0.600000 0.000000
-0.499509 0.398232 0.395307 0.300000 0.000000 0.600000
0.205324 0.433388 0.365230 0.300000 0.000000 0.600000
-0.199544 -0.739518 -0.416327 0.600000 0.000000 0.300000
0.505971 0.116502 -0.122140 0.500000 0.000000 0.500000
-0.430270 0.462540 0.310347 0.600000 0.000000 0.300000
-0.356306 -0.240143 -0.212146 0.300000 0.000000 0.600000
0.505971 -0.807945 -0.350195 0.800000 0.200000 0.500000
-0.514396 -0.583424 0.284185 0.000000 0.500000 0.500000
0.419278 -0.568506 -0.400024 0.600000 0.000000 0.300000
0.484261 -0.154875 -0.188938 0.500000 0.000000 0.500000
-0.082062 -0.684962 -0.416327 0.600000 0.000000 0.300000
0.421845 0.198886 0.065430 0.300000 0.600000 0.000000
0.129585 -0.413866 -0.210024 0.300000 0.000000 0.600000
0.505971 -0.740412 0.094467 0.800000 0.200000 0.500000
0.505971 0.505880 -0.241705 0.500000 0.000000 0.500000
-0.191397 0.490663 0.380337 0.300000 0.000000 0.600000
0.271520 -0.245790 0.397854 0.000000 0.500000 0.500000
-0.394714 0.183200 -0.181024 0.300000 0.000000 0.600000
-0.247306 0.622531 0.365230 0.300000 0.000000 0.600000
0.221962 0.185412 0.391544 0.500000 0.000000 0.500000
0.505971 -0.546563 -0.375352 0.500000 0.000000 0.500000
-0.421534 0.014663 -0.383762 0.300000 0.600000 0.000000
0.421845 -0.076655 0.305194 0.000000 0.000000 1.000000
-0.112447 0.183200 0.077321 0.300000 0.000000 0.600000
0.073801 0.182615 -0.367480 0.300000 0.600000 0.000000
-0.467683 0.620113 0.087722 0.600000 0.000000 0.300000
-0.229228 -0.617127 0.229543 0.000000 0.000000 1.000000
-0.239065 -0.497126 -0.210024 0.300000 0.000000 0.600000
0.505971 0.241791 0.054983 0.500000 0.000000 0.500000
0.298244 0.076578 0.365230 0.600000 0.000000 0.300000
-0.430270 0.482978 -0.238517 0.600000 0.000000 0.300000
0.028890 -0.514231 0.194476 0.600000 0.300000 0.000000
-0.462272 0.038412 0.365230 0.300000 0.000000 0.600000
0.278329 0.509293 0.380337 0.300000 0.000000 0.600000
0.389280 0.202536 0.039220 0.300000 0.600000 0.000000
0.339585 -0.099029 0.131002 0.000000 1.000000 0.000000
-0.491868 -0.023418 -0.367480 0.300000 0.600000 0.000000
-0.270415 -0.137091 -0.383762 0.300000 0.600000 0.000000
-0.215601 -0.090888 0.275691 0.000000 1.000000 0.000000
-0.430270 -0.425153 -0.173996 0.300000 0.600000 0.000000
-0.485461 -0.145323 0.365230 0.600000 0.000000 0.300000
-0.492686 0.136210 -0.255487 0.000000 0.500000 0.500000
0.386414 0.523870 -0.367480 0.300000 0.600000 0.000000
0.505971 0.276088 -0.309531 0.500000 0.000000 0.500000
-0.233830 0.254932 0.365230 0.500000 0.000000 0.500000
0.339546 0.074301 0.391084 0.600000 0.000000 0.300000
0.505971 -0.299011 0.093822 0.500000 0.000000 0.500000
0.421845 0.534760 0.010462 0.800000 0.200000 0.500000
-0.081757 -0.099029 0.057406 0.000000 1.000000 0.000000
-0.205976 0.368550 0.367856 0.300000 0.000000 0.600000
0.421845 0.247022 0.270677 0.300000 0.600000 0.000000
0.354339 0.242713 0.332666 0.500000 0.000000 0.500000
0.418428 0.524038 0.397795 0.300000 0.000000 0.600000
0.421845 0.466570 0.242595 0.800000 0.200000 0.500000
-0.314515 -0.522372 -0.051144 0.600000 0.300000 0.000000
-0.141985 0.183200 0.004703 0.300000 0.000000 0.600000
0.159306 -0.573934 0.245567 0.600000 0.000000 0.300000
-0.325762 0.009521 -0.238788 1.000000 0.000000 0.000000
-0.221215 0.008420 -0.242648 1.000000 0.000000 0.000000
0.013091 0.334512 0.391675 0.500000 0.000000 0.500000
0.421845 0.209592 -0.156620 0.300000 0.600000 0.000000
0.484261 -0.446166 -0.250725 0.500000 0.000000 0.500000
-0.330315 -0.090888 0.299844 0.000000 1.000000 0.000000
0.313174 -0.371237 -0.210024 0.300000 0.000000 0.600000
0.484261 0.172329 -0.242911 0.500000 0.000000 0.500000
-0.131104 -0.383024 0.380395 0.000000 0.500000 0.500000
-0.075459 -0.424007 0.380395 0.000000 0.500000 0.500000
-0.343865 -0.522372 0.189851 0.600000 0.300000 0.000000
-0.118920 0.009521 -0.213371 1.000000 0.000000 0.000000
-0.206399 -0.217034 -0.383762 0.300000 0.600000 0.000000
0.505971 -0.655947 -0.013339 0.800000 0.200000 0.500000
-0.492686 -0.334999 0.210469 0.000000 0.500000 0.500000
0.505971 0.324707 -0.057901 0.500000 0.000000 0.500000
0.484261 -0.585234 -0.101509 0.500000 0.000000 0.500000
-0.444636 0.615969 0.397795 0.300000 0.000000 0.600000
0.421147 0.291750 -0.037185 0.300000 0.600000 0.000000
-0.449764 -0.628208 0.359055 0.500000 0.500000 0.000000
0.484261 0.353267 -0.151633 0.500000 0.000000 0.500000
0.179084 -0.090888 -0.101043 0.000000 1.000000 0.000000
0.421845 0.548118 0.215074 0.800000 0.200000 0.500000
-0.430270 0.270872 0.194619 0.000000 0.500000 0.500000
-0.397705 -0.033939 -0.058510 0.800000 0.200000 0.500000
-0.218592 0.183200 -0.192497 0.300000 0.000000 0.600000
-0.056139 0.484197 -0.367480 0.300000 0.600000 0.000000
-0.126636 -0.091761 0.395231 0.600000 0.000000 0.300000
0.236559 -0.815573 0.229543 0.000000 0.000000 1.000000
0.026753 -0.057323 0.365230 0.600000 0.000000 0.300000
0.244372 -0.030127 -0.383762 0.300000 0.600000 0.000000
0.457969 0.308599 0.365230 0.600000 0.000000 0.300000
-0.514396 -0.726227 -0.302916 1.000000 0.000000 0.000000
-0.492686 -0.282284 0.258885 0.000000 0.500000 0.500000
-0.081470 -0.449381 -0.210024 0.300000 0.000000 0.600000
0.011782 0.465429 -0.156693 1.000000 0.000000 0.000000
-0.514396 0.461902 -0.239121 0.000000 0.500000 0.500000
-0.182260 -0.484200 0.332724 0.000000 0.500000 0.500000
-0.203447 -0.573934 0.306245 0.600000 0.000000 0.300000
0.505971 0.252443 -0.192358 0.500000 0.000000 0.500000
0.389280 -0.502224 -0.123530 0.600000 0.000000 0.300000
0.329297 -0.573934 0.242951 0.600000 0.000000 0.300000
0.316847 -0.226016 -0.367480 0.300000 0.600000 0.000000
0.148257 0.640524 -0.383762 0.600000 0.300000 0.000000
-0.514396 0.200121 0.034292 0.000000 0.500000 0.500000
-0.009289 0.259159 -0.210083 0.600000 0.000000 0.300000
-0.432822 -0.001502 0.397795 0.600000 0.000000 0.300000
-0.430270 0.486743 0.171941 0.600000 0.000000 0.300000
-0.037598 0.191342 0.044912 0.300000 0.000000 0.600000
0.484261 -0.161245 0.299811 0.500000 0.000000 0.500000
-0.492686 0.284235 -0.290827 0.000000 0.500000 0.500000
-0.224613 -0.522372 0.228606 0.600000 0.300000 0.000000
0.224745 -0.605387 0.229543 0.000000 0.000000 1.000000
0.088488 0.166917 0.332666 0.500000 0.000000 0.500000
0.484261 -0.436741 -0.175762 0.500000 0.000000 0.500000
-0.492686 0.583521 0.265820 0.000000 0.500000 0.500000
-0.160986 0.264544 0.332666 0.500000 0.000000 0.500000
0.418563 -0.500832 0.365289 0.600000 0.000000 0.300000
0.484261 -0.544143 0.176566 0.500000 0.000000 0.500000
-0.424183 -0.291562 0.365289 0.000000 0.500000 0.500000
-0.057185 -0.591175 -0.383762 0.300000 0.600000 0.000000
0.158852 -0.611617 0.332666 0.500000 0.500000 0.000000
-0.037259 0.465429 -0.021718 1.000000 0.000000 0.000000
-0.259343 -0.608977 0.365289 0.000000 0.500000 0.500000
0.420824 0.291750 -0.226335 0.300000 0.600000 0.000000
-0.173457 0.283173 -0.210083 0.600000 0.000000 0.300000
-0.494284 0.544816 -0.416327 0.000000 0.500000 0.500000
0.505971 -0.386259 -0.277323 0.500000 0.000000 0.500000
-0.311274 0.636148 0.365230 0.800000 0.200000 0.500000
0.310734 0.004223 0.397795 0.600000 0.000000 0.300000
-0.482156 0.227954 0.397795 0.500000 0.000000 0.500000
-0.107892 -0.215720 0.333042 0.000000 1.000000 0.000000
-0.014038 -0.605708 0.229543 0.000000 0.000000 1.000000
0.505971 0.637611 0.097609 0.500000 0.000000 0.500000
-0.057145 -0.522372 0.158973 0.600000 0.300000 0.000000
-0.498990 -0.125432 0.395640 0.600000 0.000000 0.300000
-0.493109 -0.349551 0.365289 0.000000 0.500000 0.500000
0.456161 0.272246 0.332666 0.600000 0.000000 0.300000
-0.178926 0.664898 -0.416327 0.600000 0.300000 0.000000
-0.287841 0.541426 0.332666 0.300000 0.000000 0.600000
-0.316831 0.191342 -0.090837 0.300000 0.000000 0.600000
-0.514396 0.349671 0.104920 0.000000 0.500000 0.500000
-0.364234 0.620113 0.242900 0.600000 0.000000 0.300000
-0.188129 -0.628208 0.345908 0.500000 0.500000 0.000000
0.072347 -0.573934 -0.288021 0.600000 0.000000 0.300000
0.484261 -0.372988 0.026285 0.500000 0.000000 0.500000
-0.439896 -0.483428 -0.367480 0.300000 0.600000 0.000000
0.421845 -0.421284 0.002049 0.600000 0.000000 0.300000
-0.361060 -0.522372 -0.176167 0.600000 0.300000 0.000000
0.273228 0.473571 0.255112 1.000000 0.000000 0.000000
-0.100562 0.005944 0.365230 0.600000 0.000000 0.300000
-0.514396 0.548992 -0.086893 0.000000 0.500000 0.500000
0.483892 0.009372 0.365230 0.600000 0.000000 0.300000
-0.397705 -0.015480 0.142939 0.800000 0.200000 0.500000
0.469996 0.651372 -0.416327 0.600000 0.300000 0.000000
0.505971 -0.553317 -0.322764 0.500000 0.000000 0.500000
0.355579 0.327029 0.334608 0.000000 0.000000 1.000000
-0.169516 -0.662745 -0.416327 0.600000 0.000000 0.300000
0.197679 0.043213 0.365230 0.600000 0.000000 0.300000
0.505971 -0.236455 0.150968 0.500000 0.000000 0.500000
0.185764 0.280280 -0.242648 0.600000 0.000000 0.300000
0.484261 0.308040 -0.236188 0.500000 0.000000 0.500000
-0.220451 -0.409485 -0.383762 0.300000 0.600000 0.000000
0.456095 -0.573934 -0.337769 0.600000 0.000000 0.300000
0.379372 0.439589 0.365230 0.300000 0.000000 0.600000
0.096647 -0.523966 0.332724 0.000000 0.500000 0.500000
-0.430270 -0.466068 0.174523 0.300000 0.600000 0.000000
-0.397705 -0.439831 0.048646 0.300000 0.600000 0.000000
0.446370 -0.747891 -0.416327 0.600000 0.000000 0.300000
0.505971 -0.727421 -0.118657 0.800000 0.200000 0.500000
0.186136 -0.236230 0.397854 0.000000 0.500000 0.500000
-0.474475 -0.573934 -0.283086 0.600000 0.000000 0.300000
-0.428065 0.395019 -0.383762 0.300000 0.600000 0.000000
-0.157871 -0.385000 -0.367480 0.300000 0.600000 0.000000
-0.492686 0.543143 -0.231433 0.000000 0.500000 0.500000
-0.430270 0.267458 -0.027489 0.000000 0.500000 0.500000
-0.412274 0.443017 -0.367480 0.300000 0.600000 0.000000
-0.025535 0.373504 0.365230 0.300000 0.000000 0.600000
0.484261 0.397068 0.199294 0.500000 0.000000 0.500000
0.020065 -0.544082 -0.220443 0.300000 0.000000 0.600000
-0.492686 0.214034 -0.032585 0.000000 0.500000 0.500000
0.239070 -0.542843 -0.367480 0.300000 0.600000 0.000000
-0.492686 0.228757 -0.118240 0.000000 0.500000 0.500000
0.484261 -0.521234 0.105128 0.500000 0.000000 0.500000
-0.397705 0.519593 -0.085041 0.600000 0.000000 0.300000
-0.153258 0.640650 0.365230 0.800000 0.200000 0.500000
0.479838 0.537609 0.365230 0.300000 0.000000 0.600000
0.342271 -0.001304 0.365230 0.600000 0.000000 0.300000
0.376953 -0.573934 0.094562 0.600000 0.000000 0.300000
0.505971 0.356371 -0.024652 0.500000 0.000000 0.500000
-0.092584 -0.240143 -0.234551 0.300000 0.000000 0.600000
-0.514396 0.354937 0.039694 0.000000 0.500000 0.500000
-0.019941 0.503066 0.332666 0.300000 0.000000 0.600000
-0.397705 0.264999 0.040315 0.000000 0.500000 0.500000
-0.358609 -0.677295 0.229543 0.000000 0.000000 1.000000
-0.009392 0.593653 0.365230 0.300000 0.000000 0.600000
-0.252698 -0.362915 0.332724 0.000000 0.500000 0.500000
-0.514396 0.371077 -0.319231 0.000000 0.500000 0.500000
-0.278078 0.254169 -0.242648 0.600000 0.000000 0.300000
-0.175569 0.180684 -0.242648 0.600000 0.000000 0.300000
0.146857 0.465429 0.278808 1.000000 0.000000 0.000000
-0.359013 -0.475137 0.365289 0.000000 0.500000 0.500000
0.484261 0.091082 0.011246 0.500000 0.000000 0.500000
-0.343949 0.613538 0.365230 0.300000 0.000000 0.600000
-0.120455 0.253854 0.332666 0.500000 0.000000 0.500000
-0.265610 -0.573934 -0.265767 0.600000 0.000000 0.300000
-0.321190 0.535297 0.380337 0.300000 0.000000 0.600000
0.321761 0.573690 -0.383762 0.300000 0.600000 0.000000
-0.430270 0.291718 -0.100267 0.000000 0.500000 0.500000
0.371434 -0.785291 -0.416327 0.600000 0.000000 0.300000
0.389237 0.512568 0.116870 0.800000 0.200000 0.500000
0.484261 0.303411 0.198982 0.500000 0.000000 0.500000
0.163739 0.183200 0.208383 0.300000 0.000000 0.600000
-0.315995 -0.195210 0.332666 0.000000 1.000000 0.000000
-0.083309 -0.048621 -0.367480 0.300000 0.600000 0.000000
-0.017129 -0.573934 -0.212305 0.600000 0.000000 0.300000
0.421845 -0.250842 0.096494 0.600000 0.000000 0.300000
-0.514396 -0.434795 0.210335 0.000000 0.500000 0.500000
0.098003 0.161490 -0.217844 0.600000 0.000000 0.300000
0.389280 -0.261640 0.220159 0.600000 0.000000 0.300000
0.387701 0.473571 -0.203684 1.000000 0.000000 0.000000
-0.021172 0.447979 -0.242648 0.000000 0.000000 1.000000
-0.349285 0.511070 -0.210083 0.000000 0.000000 1.000000
0.299666 -0.397810 -0.242589 0.300000 0.000000 0.600000
-0.221641 -0.573934 -0.074761 0.600000 0.000000 0.300000
-0.514396 -0.784152 -0.034931 1.000000 0.000000 0.000000
-0.378174 -0.457935 0.332724 0.000000 0.500000 0.500000
0.445576 -0.573934 -0.072920 0.600000 0.000000 0.300000
0.505971 -0.199741 0.266443 0.500000 0.000000 0.500000
0.421845 -0.278034 -0.126955 0.600000 0.000000 0.300000
0.275139 0.192281 -0.242648 0.600000 0.000000 0.300000
-0.178815 -0.362538 0.380395 0.000000 0.500000 0.500000
0.145198 -0.689918 0.229543 0.000000 0.000000 1.000000
0.214550 -0.132732 -0.367480 0.300000 0.600000 0.000000
-0.077580 -0.029109 -0.210083 1.000000 0.000000 0.000000
0.275130 -0.090888 0.005222 0.000000 1.000000 0.000000
0.484261 -0.349145 -0.412416 0.500000 0.000000 0.500000
0.175279 0.399164 -0.367480 0.300000 0.600000 0.000000
-0.414425 0.161490 -0.077295 0.000000 0.500000 0.500000
0.240643 -0.573934 0.127440 0.600000 0.000000 0.300000
-0.397705 -0.251866 0.290684 0.300000 0.600000 0.000000
0.426570 0.556475 -0.367480 0.300000 0.600000 0.000000
-0.089520 0.473571 0.095372 1.000000 0.000000 0.000000
0.484261 -0.067783 0.267340 0.500000 0.000000 0.500000
-0.292835 -0.469777 0.365289 0.000000 0.500000 0.500000
0.414653 0.284500 -0.383762 0.300000 0.600000 0.000000
0.484261 -0.272824 -0.221191 0.500000 0.000000 0.500000
0.110937 -0.099029 -0.139752 0.000000 1.000000 0.000000
-0.068375 0.076239 0.390535 0.600000 0.000000 0.300000
0.484261 0.080400 0.055673 0.500000 0.000000 0.500000
0.236192 0.006843 -0.242648 1.000000 0.000000 0.000000
-0.189405 0.183200 0.251393 0.300000 0.000000 0.600000
-0.430270 -0.421469 0.238704 0.300000 0.600000 0.000000
0.423229 -0.154868 0.365230 0.600000 0.000000 0.300000
0.335047 -0.573934 -0.344664 0.600000 0.000000 0.300000
0.316005 0.183200 0.218230 0.300000 0.000000 0.600000
0.484261 0.635165 -0.295380 0.500000 0.000000 0.500000
0.505971 0.318808 -0.378335 0.500000 0.000000 0.500000
0.481916 0.465008 0.365230 0.300000 0.000000 0.600000
-0.362426 0.629190 0.050904 0.600000 0.000000 0.300000
-0.129748 -0.522372 0.205518 0.600000 0.300000 0.000000
0.291814 0.163925 -0.367480 0.300000 0.600000 0.000000
0.484261 -0.155121 -0.097669 0.500000 0.000000 0.500000
-0.077908 0.473571 -0.046147 1.000000 0.000000 0.000000
0.063756 0.101715 0.365230 0.500000 0.000000 0.500000
0.431445 0.609258 0.360247 0.800000 0.200000 0.500000
-0.005981 -0.514231 0.329543 0.600000 0.300000 0.000000
0.194776 -0.337752 -0.210024 0.300000 0.000000 0.600000
-0.514396 0.262330 0.205491 0.000000 0.500000 0.500000
0.109189 0.526837 0.410988 0.600000 0.300000 0.000000
-0.295334 -0.522372 0.027712 0.600000 0.300000 0.000000
0.229362 -0.300196 -0.210024 0.300000 0.000000 0.600000
-0.430270 -0.017162 -0.177137 0.800000 0.200000 0.500000
0.377516 -0.429418 -0.242589 0.300000 0.000000 0.600000
-0.430270 -0.088959 -0.192105 0.800000 0.200000 0.500000
0.175938 0.441835 0.397795 0.300000 0.000000 0.600000
0.389280 -0.462799 -0.091714 0.600000 0.000000 0.300000
-0.056384 -0.099029 -0.124762 0.000000 1.000000 0.000000
-0.133158 -0.096952 -0.367480 0.300000 0.600000 0.000000
0.389280 -0.037658 -0.055884 0.000000 0.000000 1.000000
0.356326 0.191342 0.023790 0.300000 0.000000 0.600000
0.421845 -0.421979 -0.073103 0.600000 0.000000 0.300000
-0.062159 -0.264516 -0.242589 0.300000 0.000000 0.600000
0.389280 0.189605 0.210227 0.300000 0.600000 0.000000
-0.514396 -0.470874 -0.373218 0.000000 0.500000 0.500000
0.505971 -0.300788 -0.293271 0.500000 0.000000 0.500000
-0.051318 0.370467 -0.383762 0.300000 0.600000 0.000000
0.147032 -0.078203 -0.242648 1.000000 0.000000 0.000000
-0.121082 -0.090888 -0.164433 0.000000 1.000000 0.000000
-0.430270 -0.481207 0.076775 0.300000 0.600000 0.000000
0.117823 0.498036 -0.210083 0.000000 0.000000 1.000000
0.421845 -0.338229 0.360585 0.600000 0.000000 0.300000
0.024401 -0.514231 -0.028572 0.600000 0.300000 0.000000
0.168498 0.252989 -0.383762 0.300000 0.600000 0.000000
-0.398186 0.573979 0.110068 0.600000 0.000000 0.300000
-0.132476 0.639501 0.397795 0.300000 0.000000 0.600000
-0.320015 -0.277197 -0.210024 0.300000 0.000000 0.600000
-0.397705 0.169473 0.125374 0.000000 0.500000 0.500000
0.389280 -0.002184 0.182022 0.000000 0.000000 1.000000
0.484261 0.051539 -0.411292 0.500000 0.000000 0.500000
0.096187 0.473571 0.085603 1.000000 0.000000 0.000000
0.174027 -0.463667 0.365289 0.000000 0.500000 0.500000
-0.265399 0.380446 0.365230 0.000000 0.000000 1.000000
-0.430270 -0.046275 0.081629 0.800000 0.200000 0.500000
0.337533 0.657085 -0.383762 0.600000 0.300000 0.000000
-0.317390 -0.568506 -0.410882 0.600000 0.000000 0.300000
-0.176374 -0.522372 0.225737 0.600000 0.300000 0.000000
-0.421574 -0.544082 0.169494 0.300000 0.600000 0.000000
-0.081354 -0.514231 0.124358 0.600000 0.300000 0.000000
0.421845 0.489740 0.203604 0.800000 0.200000 0.500000
0.364238 -0.461769 0.380395 0.000000 0.500000 0.500000
-0.029370 0.280605 0.365230 0.500000 0.000000 0.500000
0.296897 0.253206 -0.210083 0.600000 0.000000 0.300000
-0.070497 0.183200 0.097381 0.300000 0.000000 0.600000
-0.374234 -0.004400 -0.383762 0.300000 0.600000 0.000000
0.475088 -0.200343 -0.367480 0.300000 0.600000 0.000000
-0.430268 0.620113 -0.217631 0.600000 0.000000 0.300000
-0.402711 0.443720 0.095444 0.600000 0.000000 0.300000
0.484261 -0.527177 0.302146 0.500000 0.000000 0.500000
0.505971 -0.215369 -0.182415 0.500000 0.000000 0.500000
0.072147 0.183200 0.267489 0.300000 0.000000 0.600000
0.342691 0.368621 0.389923 0.300000 0.000000 0.600000
0.109783 -0.478384 0.332724 0.000000 0.500000 0.500000
-0.430270 -0.467031 -0.010742 0.300000 0.600000 0.000000
-0.113516 -0.238987 0.365289 0.000000 0.500000 0.500000
-0.466132 -0.712480 -0.416327 0.600000 0.000000 0.300000
0.013107 -0.347245 -0.210024 0.300000 0.000000 0.600000
0.458278 0.165607 -0.383762 0.300000 0.600000 0.000000
0.503235 0.126943 -0.416327 0.500000 0.000000 0.500000
0.360240 0.159184 0.397795 0.500000 0.000000 0.500000
-0.299080 -0.424985 0.332724 0.000000 0.500000 0.500000
-0.397705 -0.288814 -0.062197 0.300000 0.600000 0.000000
0.132202 0.234915 0.380337 0.500000 0.000000 0.500000
0.389280 -0.387515 0.098768 0.600000 0.000000 0.300000
0.292002 -0.573934 0.080465 0.600000 0.000000 0.300000
0.299586 0.213157 -0.210083 0.600000 0.000000 0.300000
0.397189 -0.544082 -0.120902 0.600000 0.000000 0.300000
0.168889 -0.487637 0.332724 0.000000 0.500000 0.500000
-0.492686 -0.332117 -0.364421 0.000000 0.500000 0.500000
-0.492686 -0.462510 -0.241325 0.000000 0.500000 0.500000
-0.018297 0.465429 0.234705 1.000000 0.000000 0.000000
-0.514396 0.335960 -0.069270 0.000000 0.500000 0.500000
0.451696 0.508141 0.333205 0.600000 0.000000 0.300000
0.505971 -0.666953 -0.158988 0.800000 0.200000 0.500000
-0.107282 -0.090888 -0.103394 0.000000 1.000000 0.000000
-0.119406 -0.276233 -0.367480 0.300000 0.600000 0.000000
-0.480274 0.077606 -0.383762 0.300000 0.600000 0.000000
0.484261 0.578950 0.123013 0.500000 0.000000 0.500000
0.389280 -0.342638 0.044262 0.600000 0.000000 0.300000
-0.234174 -0.258244 -0.242589 0.300000 0.000000 0.600000
-0.189081 -0.090888 0.000975 0.000000 1.000000 0.000000
-0.492686 -0.086237 0.036896 0.000000 0.500000 0.500000
-0.430270 -0.311744 0.138544 0.300000 0.600000 0.000000
0.516826 0.330671 0.354115 0.600000 0.000000 0.300000
0.484261 -0.598074 0.170371 0.500000 0.000000 0.500000
-0.135026 0.573979 0.351728 0.300000 0.000000 0.600000
0.221066 -0.420590 0.380395 0.000000 0.500000 0.500000
-0.007917 0.535784 -0.210083 0.000000 0.000000 1.000000
-0.492686 0.150588 0.164320 0.000000 0.500000 0.500000
-0.458142 0.332823 -0.367480 0.300000 0.600000 0.000000
0.389280 0.445203 0.062080 0.800000 0.200000 0.500000
0.389280 -0.439377 0.314619 0.600000 0.000000 0.300000
0.421845 -0.469571 0.116317 0.600000 0.000000 0.300000
0.478152 0.105820 0.365230 0.500000 0.000000 0.500000
-0.439826 0.046205 0.397795 0.600000 0.000000 0.300000
-0.076041 -0.277103 0.332724 0.000000 0.500000 0.500000
-0.132094 -0.785361 -0.416327 0.600000 0.000000 0.300000
-0.514396 -0.601205 -0.326797 0.000000 0.500000 0.500000
-0.492686 0.622617 0.225342 0.000000 0.500000 0.500000
-0.174749 -0.259022 0.365289 0.000000 0.500000 0.500000
-0.391517 -0.540356 -0.242589 0.300000 0.000000 0.600000
-0.041547 -0.202913 0.365230 0.000000 1.000000 0.000000
-0.149565 -0.609090 -0.416327 0.600000 0.000000 0.300000
0.478472 -0.408470 0.332666 0.600000 0.000000 0.300000
-0.397705 -0.018096 0.220676 0.800000 0.200000 0.500000
0.258565 -0.573934 -0.204458 0.600000 0.000000 0.300000
0.389280 0.162504 -0.118434 0.300000 0.600000 0.000000
-0.514396 -0.707014 0.196075 1.000000 0.000000 0.000000
0.484261 0.483545 -0.202197 0.500000 0.000000 0.500000
-0.033096 -0.064436 -0.242648 1.000000 0.000000 0.000000
0.115298 0.225443 0.332666 0.500000 0.000000 0.500000
-0.430270 -0.498647 -0.206730 0.300000 0.600000 0.000000
0.396024 -0.044089 0.395904 0.600000 0.000000 0.300000
-0.385151 -0.600035 0.229543 0.000000 0.000000 1.000000
0.505971 0.063823 0.252969 0.500000 0.000000 0.500000
-0.492686 -0.053774 0.062197 0.000000 0.500000 0.500000
-0.492686 -0.091308 -0.336670 0.000000 0.500000 0.500000
0.479963 -0.492626 0.365289 0.000000 0.500000 0.500000
-0.514396 0.096841 -0.261008 0.000000 0.500000 0.500000
0.327223 0.191342 -0.186482 0.300000 0.000000 0.600000
0.298731 0.452280 0.395773 0.300000 0.000000 0.600000
-0.411208 -0.158264 0.393000 0.600000 0.000000 0.300000
-0.115045 -0.404798 -0.383762 0.300000 0.600000 0.000000
0.421845 -0.333888 0.145269 0.600000 0.000000 0.300000
-0.277963 0.659216 -0.383762 0.600000 0.300000 0.000000
-0.337028 -0.037853 0.332666 0.600000 0.000000 0.300000
0.181949 -0.714077 -0.416327 0.600000 0.000000 0.300000
-0.492686 0.459583 -0.008931 0.000000 0.500000 0.500000
0.217585 0.523009 0.365230 0.300000 0.000000 0.600000
-0.430270 -0.530070 -0.098379 0.300000 0.600000 0.000000
-0.514396 -0.161249 -0.314015 0.000000 0.500000 0.500000
-0.243359 0.473571 0.219482 1.000000 0.000000 0.000000
-0.014180 -0.482515 -0.210024 0.300000 0.000000 0.600000
-0.052725 -0.658328 0.229543 0.000000 0.000000 1.000000
0.234700 -0.120739 0.334610 0.600000 0.000000 0.300000
-0.013985 -0.428957 -0.210024 0.300000 0.000000 0.600000
0.274878 0.132477 0.397795 0.500000 0.000000 0.500000
-0.492686 -0.546946 -0.344440 0.000000 0.500000 0.500000
0.400148 -0.573934 -0.325649 0.600000 0.000000 0.300000
-0.047233 0.050579 0.365230 0.600000 0.000000 0.300000
0.102322 0.140125 0.397795 0.500000 0.000000 0.500000
0.156384 0.516106 -0.383762 0.300000 0.600000 0.000000
0.198506 -0.522372 0.068477 0.600000 0.300000 0.000000
-0.344185 -0.090888 0.035091 0.000000 1.000000 0.000000
-0.390462 0.465429 0.001315 1.000000 0.000000 0.000000
-0.321940 -0.773454 0.229543 0.000000 0.000000 1.000000
0.267154 0.540355 0.332666 0.300000 0.000000 0.600000
-0.308325 -0.054350 -0.210083 1.000000 0.000000 0.000000
-0.359022 -0.621109 0.332666 0.500000 0.500000 0.000000
-0.309441 -0.573934 0.212677 0.600000 0.000000 0.300000
0.005851 -0.325151 0.332724 0.000000 0.500000 0.500000
0.421845 -0.040999 0.150685 0.000000 0.000000 1.000000
0.251303 0.456306 0.365230 0.300000 0.000000 0.600000
-0.148642 -0.368745 -0.210024 0.300000 0.000000 0.600000
0.170712 0.121926 -0.383762 0.300000 0.600000 0.000000
0.198189 -0.099029 0.190812 0.000000 1.000000 0.000000
-0.514396 -0.169335 0.064044 0.000000 0.500000 0.500000
-0.492686 0.174726 -0.033826 0.000000 0.500000 0.500000
-0.171849 0.078156 0.332666 1.000000 0.000000 0.000000
-0.206322 -0.092879 -0.383762 0.300000 0.600000 0.000000
-0.074333 -0.090888 0.285617 0.000000 1.000000 0.000000
-0.397705 -0.516294 0.238784 0.300000 0.600000 0.000000
-0.514396 0.055708 -0.105399 0.000000 0.500000 0.500000
-0.492686 -0.056858 -0.014457 0.000000 0.500000 0.500000
0.292847 -0.099029 -0.081415 0.000000 1.000000 0.000000
-0.514396 0.031165 -0.326560 0.000000 0.500000 0.500000
-0.088041 -0.116811 -0.383762 0.300000 0.600000 0.000000
-0.514396 0.258340 -0.209460 0.000000 0.500000 0.500000
-0.292540 0.119108 -0.383762 0.300000 0.600000 0.000000
-0.102500 -0.060268 0.380337 0.600000 0.000000 0.300000
-0.430270 -0.495977 0.327537 0.300000 0.600000 0.000000
0.393335 0.161490 0.015202 0.300000 0.600000 0.000000
-0.514396 0.336299 -0.154121 0.000000 0.500000 0.500000
-0.077801 -0.573934 -0.060643 0.600000 0.000000 0.300000
-0.318334 -0.652498 -0.416327 0.600000 0.000000 0.300000
-0.406639 0.161490 0.257669 0.000000 0.500000 0.500000
0.209223 -0.514231 0.184908 0.600000 0.300000 0.000000
-0.113118 -0.514231 0.047491 0.600000 0.300000 0.000000
-0.482729 0.037311 0.332666 0.300000 0.000000 0.600000
0.024027 -0.099029 0.229669 0.000000 1.000000 0.000000
0.389280 -0.311775 -0.026726 0.600000 0.000000 0.300000
-0.314898 -0.099029 -0.142332 0.000000 1.000000 0.000000
-0.028730 -0.573934 0.186989 0.600000 0.000000 0.300000
0.257980 0.198627 -0.210083 0.600000 0.000000 0.300000
0.505971 0.208560 -0.303918 0.500000 0.000000 0.500000
0.142990 -0.273257 0.365289 0.000000 0.500000 0.500000
0.260997 -0.235147 -0.383762 0.300000 0.600000 0.000000
-0.226074 0.347680 -0.383762 0.300000 0.600000 0.000000
0.174841 -0.520342 -0.367480 0.300000 0.600000 0.000000
-0.365949 0.316730 0.397795 0.500000 0.000000 0.500000
0.047044 -0.592617 0.332666 0.500000 0.500000 0.000000
-0.204465 0.439548 0.397795 0.300000 0.000000 0.600000
-0.492686 -0.619147 -0.073439 0.000000 0.500000 0.500000
-0.111005 0.164903 -0.210083 0.600000 0.000000 0.300000
-0.179971 -0.522372 0.016697 0.600000 0.300000 0.000000
-0.185397 0.391413 0.332666 0.000000 0.000000 1.000000
-0.237369 0.183200 0.208176 0.300000 0.000000 0.600000
-0.236121 -0.573934 0.032592 0.600000 0.000000 0.300000
0.484261 0.548162 -0.253335 0.500000 0.000000 0.500000
0.392480 -0.120739 -0.068476 0.000000 0.000000 1.000000
0.484261 0.031928 0.052431 0.500000 0.000000 0.500000
0.505971 -0.036102 -0.254012 0.500000 0.000000 0.500000
0.372578 -0.514231 0.303758 0.600000 0.300000 0.000000
-0.381829 0.191342 -0.137644 0.300000 0.000000 0.600000
0.375310 0.605492 -0.383762 0.300000 0.600000 0.000000
0.486908 0.351452 0.376415 0.500000 0.000000 0.500000
0.293734 0.624189 0.365230 0.300000 0.000000 0.600000
0.149590 0.566800 -0.383762 0.300000 0.600000 0.000000
0.122685 -0.241196 0.365289 0.000000 0.500000 0.500000
0.201163 -0.046129 0.380337 0.600000 0.000000 0.300000
-0.514396 0.128747 -0.186919 0.000000 0.500000 0.500000
0.484261 -0.089286 -0.402588 0.500000 0.000000 0.500000
0.370317 0.620113 0.004823 0.300000 0.000000 0.600000
0.437459 0.648840 0.332666 0.800000 0.200000 0.500000
-0.066530 0.144848 0.365230 0.500000 0.000000 0.500000
-0.492686 -0.331101 -0.142064 0.000000 0.500000 0.500000
0.089634 -0.099029 -0.066974 0.000000 1.000000 0.000000
0.424755 0.440337 0.365230 0.300000 0.000000 0.600000
-0.442425 -0.576596 -0.416327 0.600000 0.000000 0.300000
-0.052201 0.473571 0.032108 1.000000 0.000000 0.000000
-0.108473 0.501916 -0.367480 0.300000 0.600000 0.000000
0.327257 -0.099029 0.202178 0.000000 1.000000 0.000000
-0.485388 -0.599295 0.229543 0.000000 0.000000 1.000000
-0.492686 -0.431854 0.302342 0.000000 0.500000 0.500000
0.314028 -0.070096 -0.242648 1.000000 0.000000 0.000000
0.505971 -0.028887 0.159487 0.500000 0.000000 0.500000
-0.430270 -0.048782 -0.073787 0.800000 0.200000 0.500000
0.484261 -0.314519 -0.125322 0.500000 0.000000 0.500000
0.212795 -0.099029 0.075986 0.000000 1.000000 0.000000
0.421845 0.005755 -0.175891 0.000000 0.000000 1.000000
0.460775 -0.773358 0.229543 0.000000 0.000000 1.000000
0.421845 0.492662 -0.038567 0.800000 0.200000 0.500000
0.455471 -0.353305 0.365289 0.000000 0.500000 0.500000
-0.384635 -0.090888 0.042153 0.000000 1.000000 0.000000
-0.393696 -0.573934 0.043222 0.600000 0.000000 0.300000
-0.386729 -0.573934 -0.130648 0.600000 0.000000 0.300000
0.494807 0.487989 0.332666 0.600000 0.000000 0.300000
0.421845 0.536293 -0.071959 0.800000 0.200000 0.500000
0.253676 0.473571 -0.107240 1.000000 0.000000 0.000000
0.421845 -0.287268 0.045917 0.600000 0.000000 0.300000
0.262110 0.098030 0.332666 1.000000 0.000000 0.000000
0.114716 0.191342 0.131759 0.300000 0.000000 0.600000
0.505971 -0.413346 0.187365 0.500000 0.000000 0.500000
-0.514396 -0.443731 -0.291860 0.000000 0.500000 0.500000
-0.039216 -0.312326 -0.242589 0.300000 0.000000 0.600000
0.348160 -0.492414 0.332724 0.000000 0.500000 0.500000
-0.430270 -0.389377 0.296580 0.300000 0.600000 0.000000
0.416318 -0.573934 0.028263 0.600000 0.000000 0.300000
0.273389 -0.101359 0.397795 0.600000 0.000000 0.300000
-0.224387 0.330701 0.332666 0.000000 0.000000 1.000000
-0.278752 -0.573934 0.243054 0.600000 0.000000 0.300000
0.219084 0.504243 -0.210083 0.000000 0.000000 1.000000
-0.514396 0.537853 0.157403 0.000000 0.500000 0.500000
-0.474369 -0.104868 -0.367480 0.300000 0.600000 0.000000
0.393561 0.641823 -0.273017 0.300000 0.000000 0.600000
-0.262078 -0.514231 0.242418 0.600000 0.300000 0.000000
-0.286880 -0.119372 0.332666 0.600000 0.000000 0.300000
-0.086443 -0.496284 0.332724 0.000000 0.500000 0.500000
-0.018747 0.183200 0.170190 0.300000 0.000000 0.600000
0.389280 -0.396490 -0.066976 0.600000 0.000000 0.300000
0.081552 -0.474756 -0.210024 0.300000 0.000000 0.600000
-0.089406 0.297075 -0.367480 0.300000 0.600000 0.000000
0.185807 -0.412609 -0.242589 0.300000 0.000000 0.600000
0.421845 -0.101927 -0.054400 0.000000 0.000000 1.000000
0.484261 -0.183611 0.208823 0.500000 0.000000 0.500000
0.505971 0.438467 -0.401091 0.500000 0.000000 0.500000
0.505971 0.253485 -0.415927 0.500000 0.000000 0.500000
-0.479881 0.641823 -0.119477 0.600000 0.000000 0.300000
-0.142909 0.063324 0.392581 0.600000 0.000000 0.300000
-0.514396 -0.797966 -0.299108 1.000000 0.000000 0.000000
0.136156 -0.539637 -0.242589 0.300000 0.000000 0.600000
-0.399835 0.251661 -0.383762 0.300000 0.600000 0.000000
0.389280 -0.327982 0.220449 0.600000 0.000000 0.300000
0.184755 -0.191296 0.385307 0.000000 0.500000 0.500000
-0.514396 0.023152 0.119818 0.000000 0.500000 0.500000
-0.484331 -0.498006 -0.383762 0.300000 0.600000 0.000000
-0.058232 -0.573934 -0.122517 0.600000 0.000000 0.300000
-0.129309 -0.573934 0.168993 0.600000 0.000000 0.300000
0.245205 0.577174 0.391419 0.300000 0.000000 0.600000
0.505971 0.354838 -0.086941 0.500000 0.000000 0.500000
-0.414252 0.620113 0.271103 0.600000 0.000000 0.300000
0.505971 -0.345282 -0.364119 0.500000 0.000000 0.500000
-0.024876 -0.243293 -0.210024 0.300000 0.000000 0.600000
-0.108663 0.262442 0.391788 0.500000 0.000000 0.500000
-0.514396 -0.140318 -0.048900 0.000000 0.500000 0.500000
-0.243151 0.191342 0.295576 0.300000 0.000000 0.600000
0.408180 0.573979 0.147151 0.800000 0.200000 0.500000
0.300262 -0.042222 0.332666 0.600000 0.000000 0.300000
0.405570 -0.544082 0.313823 0.600000 0.000000 0.300000
-0.048856 0.191342 -0.185318 0.300000 0.000000 0.600000
-0.193365 -0.563079 0.350589 0.500000 0.500000 0.000000
-0.025637 -0.163543 -0.367480 0.300000 0.600000 0.000000
0.139623 -0.090888 -0.060343 0.000000 1.000000 0.000000
0.389280 -0.332879 -0.148891 0.600000 0.000000 0.300000
-0.143480 0.268727 -0.367480 0.300000 0.600000 0.000000
0.304063 0.609725 -0.367480 0.300000 0.600000 0.000000
0.505971 -0.334465 -0.231472 0.500000 0.000000 0.500000
0.312167 0.493845 -0.367480 0.300000 0.600000 0.000000
0.383111 0.025300 0.365230 0.600000 0.000000 0.300000
-0.430018 0.620113 0.037974 0.600000 0.000000 0.300000
0.200289 0.190267 -0.367480 0.300000 0.600000 0.000000
-0.104062 0.544128 -0.390018 0.600000 0.300000 0.000000
0.261029 0.078415 0.365230 1.000000 0.000000 0.000000
-0.289286 0.131639 0.341245 1.000000 0.000000 0.000000
-0.121387 0.500070 0.365230 0.300000 0.000000 0.600000
-0.492686 -0.017674 -0.276745 0.000000 0.500000 0.500000
-0.238053 0.238191 -0.210083 0.600000 0.000000 0.300000
0.274592 -0.522372 0.080831 0.600000 0.300000 0.000000
-0.057497 0.406683 0.365230 0.300000 0.000000 0.600000
-0.201510 0.584142 -0.383762 0.300000 0.600000 0.000000
-0.422994 -0.582587 0.397854 0.000000 0.500000 0.500000
-0.253027 -0.243298 0.332724 0.000000 0.500000 0.500000
0.381312 0.522576 0.332666 0.300000 0.000000 0.600000
-0.397705 0.477214 -0.077951 0.600000 0.000000 0.300000
0.419550 -0.120739 0.030550 0.000000 0.000000 1.000000
0.057376 -0.090888 0.027818 0.000000 1.000000 0.000000
0.317205 -0.573934 0.329643 0.600000 0.000000 0.300000
0.128698 -0.046965 0.365230 0.600000 0.000000 0.300000
0.069750 0.378648 0.393458 0.300000 0.000000 0.600000
0.345569 0.221090 -0.242648 0.600000 0.000000 0.300000
0.440719 -0.319048 0.397854 0.000000 0.500000 0.500000
-0.290176 -0.039603 0.332666 0.600000 0.000000 0.300000
-0.258012 0.473571 0.090540 1.000000 0.000000 0.000000
-0.215526 -0.464907 -0.210024 0.300000 0.000000 0.600000
-0.520568 0.035911 0.332666 0.300000 0.000000 0.600000
0.343703 -0.622620 0.229543 0.000000 0.000000 1.000000
0.356438 0.097666 0.332666 1.000000 0.000000 0.000000
-0.131719 0.201371 0.365230 0.500000 0.000000 0.500000
-0.392778 -0.022585 0.332666 0.600000 0.000000 0.300000
-0.192311 0.552491 -0.210083 0.000000 0.000000 1.000000
0.389280 -0.070987 0.191632 0.000000 0.000000 1.000000
0.419831 0.161490 -0.221980 0.300000 0.600000 0.000000
-0.299700 0.512781 -0.242648 0.000000 0.000000 1.000000
-0.251962 0.627366 -0.416327 0.600000 0.300000 0.000000
-0.492686 -0.167252 -0.277553 0.000000 0.500000 0.500000
-0.430270 -0.094085 0.056804 0.800000 0.200000 0.500000
0.269189 0.291750 -0.213456 0.600000 0.000000 0.300000
-0.374243 -0.082515 -0.210083 1.000000 0.000000 0.000000
0.063425 -0.463714 -0.367480 0.300000 0.600000 0.000000
-0.301570 -0.617860 0.229543 0.000000 0.000000 1.000000
-0.514396 0.086327 -0.178120 0.000000 0.500000 0.500000
-0.369354 -0.114787 -0.242648 1.000000 0.000000 0.000000
-0.202188 -0.016752 0.380337 0.600000 0.000000 0.300000
-0.181215 -0.318119 -0.242589 0.300000 0.000000 0.600000
0.505971 0.519649 -0.172884 0.500000 0.000000 0.500000
-0.366458 0.101579 0.365230 0.500000 0.000000 0.500000
-0.144621 0.196153 -0.210083 0.600000 0.000000 0.300000
0.158121 0.038763 0.365230 0.600000 0.000000 0.300000
-0.053971 0.545991 -0.210083 0.000000 0.000000 1.000000
0.516826 -0.065491 0.344643 0.600000 0.000000 0.300000
0.424755 0.641823 0.218771 0.300000 0.000000 0.600000
-0.088937 0.532606 0.388528 0.600000 0.300000 0.000000
-0.217899 0.465429 0.019131 1.000000 0.000000 0.000000
-0.037659 0.473571 -0.111021 1.000000 0.000000 0.000000
0.115023 -0.168818 0.365230 0.600000 0.000000 0.300000
0.273125 -0.573934 -0.002825 0.600000 0.000000 0.300000
0.061232 0.620113 -0.372451 0.300000 0.600000 0.000000
0.021087 -0.115509 -0.210083 1.000000 0.000000 0.000000
0.505971 0.559520 -0.210618 0.500000 0.000000 0.500000
-0.318173 -0.317388 -0.367480 0.300000 0.600000 0.000000
-0.397705 0.272064 0.158405 0.000000 0.500000 0.500000
0.081541 -0.082753 0.332666 0.600000 0.000000 0.300000
0.139067 0.486302 0.380337 0.300000 0.000000 0.600000
-0.466945 0.193155 0.332666 0.300000 0.000000 0.600000
-0.397705 0.559655 -0.083878 0.600000 0.000000 0.300000
-0.437132 0.620113 -0.128741 0.600000 0.000000 0.300000
-0.514396 0.664154 -0.366809 0.000000 0.500000 0.500000
-0.492686 0.388833 0.266513 0.000000 0.500000 0.500000
-0.492686 0.288655 -0.105588 0.000000 0.500000 0.500000
0.474155 -0.096000 0.397795 0.600000 0.000000 0.300000
0.357852 0.620113 0.077346 0.300000 0.000000 0.600000
-0.397705 0.249526 0.358060 0.000000 0.500000 0.500000
0.000477 -0.573934 -0.064530 0.600000 0.000000 0.300000
-0.492686 0.115690 -0.334337 0.000000 0.500000 0.500000
0.484261 0.212497 0.058190 0.500000 0.000000 0.500000
-0.237665 0.184237 -0.242648 0.600000 0.000000 0.300000
-0.047973 -0.605115 -0.416327 0.600000 0.000000 0.300000
-0.397705 0.248105 -0.077980 0.000000 0.500000 0.500000
-0.514396 0.382312 -0.113177 0.000000 0.500000 0.500000
0.372185 0.426916 -0.367480 0.300000 0.600000 0.000000
0.505971 -0.584768 -0.362149 0.500000 0.000000 0.500000
0.223070 0.078260 0.366179 0.600000 0.000000 0.300000
-0.430270 0.532034 -0.032391 0.600000 0.000000 0.300000
-0.467250 -0.481864 0.397854 0.000000 0.500000 0.500000
0.094474 0.573979 -0.240597 0.000000 0.000000 1.000000
0.505971 -0.077825 -0.244842 0.500000 0.000000 0.500000
-0.020282 -0.099029 0.005832 0.000000 1.000000 0.000000
-0.391808 0.620113 0.106021 0.600000 0.000000 0.300000
0.389280 -0.078617 0.067921 0.000000 0.000000 1.000000
0.093924 0.131639 0.344047 1.000000 0.000000 0.000000
-0.360688 -0.573934 0.007455 0.600000 0.000000 0.300000
0.272619 0.191342 0.006346 0.300000 0.000000 0.600000
-0.157202 -0.287284 0.380395 0.000000 0.500000 0.500000
0.059223 -0.082195 -0.242648 1.000000 0.000000 0.000000
-0.174875 -0.111615 0.397795 0.600000 0.000000 0.300000
-0.073102 0.234834 0.389801 0.500000 0.500000 0.000000
-0.370268 0.349580 0.366088 0.500000 0.000000 0.500000
-0.514396 -0.300550 0.308091 0.000000 0.500000 0.500000
-0.129485 0.085520 -0.383762 0.300000 0.600000 0.000000
-0.302959 0.075884 -0.367480 0.300000 0.600000 0.000000
-0.430270 0.199938 0.248987 0.000000 0.500000 0.500000
-0.263276 -0.048460 -0.367480 0.300000 0.600000 0.000000
0.485751 0.488113 -0.416327 0.500000 0.000000 0.500000
-0.430270 -0.302294 -0.082755 0.300000 0.600000 0.000000
0.301824 -0.779176 0.229543 0.000000 0.000000 1.000000
-0.161437 -0.103605 0.332666 0.600000 0.000000 0.300000
-0.430270 0.448427 0.359603 0.600000 0.000000 0.300000
-0.408247 -0.452815 -0.367480 0.300000 0.600000 0.000000
0.016419 -0.169136 0.391116 0.600000 0.000000 0.300000
0.182988 -0.568506 -0.399370 0.600000 0.000000 0.300000
0.505971 -0.697837 -0.413495 0.800000 0.200000 0.500000
0.314159 0.254636 -0.383762 0.300000 0.600000 0.000000
0.421845 -0.527287 0.014604 0.600000 0.000000 0.300000
0.352991 -0.099029 -0.037575 0.000000 1.000000 0.000000
-0.014049 -0.099029 0.223684 0.000000 1.000000 0.000000
0.140554 -0.522372 -0.066482 0.600000 0.300000 0.000000
0.340754 -0.608346 0.365289 0.000000 0.500000 0.500000
-0.514396 -0.174839 -0.018449 0.000000 0.500000 0.500000
0.193433 -0.514231 0.259773 0.600000 0.300000 0.000000
-0.468253 -0.029765 0.365230 0.600000 0.000000 0.300000
0.326183 0.443720 0.360822 0.300000 0.000000 0.600000
-0.317961 -0.099029 0.071227 0.000000 1.000000 0.000000
-0.430270 -0.039767 0.240963 0.800000 0.200000 0.500000
-0.204714 0.196613 0.365230 0.500000 0.000000 0.500000
-0.514396 0.018713 -0.181640 0.000000 0.500000 0.500000
0.484261 0.004562 0.138762 0.500000 0.000000 0.500000
0.505971 -0.020912 0.003098 0.500000 0.000000 0.500000
-0.514396 -0.080827 0.277208 0.000000 0.500000 0.500000
-0.492686 -0.311994 0.056272 0.000000 0.500000 0.500000
-0.514396 -0.581728 -0.186397 0.000000 0.500000 0.500000
-0.514396 -0.526260 0.109437 0.000000 0.500000 0.500000
0.455077 0.158598 0.397795 0.500000 0.000000 0.500000
-0.339711 -0.711847 0.229543 0.000000 0.000000 1.000000
-0.367491 -0.090888 0.243299 0.000000 1.000000 0.000000
-0.305976 0.013135 0.365230 0.600000 0.000000 0.300000
0.019184 0.447241 -0.242648 0.000000 0.000000 1.000000
0.128836 -0.252457 -0.242589 0.300000 0.000000 0.600000
0.288753 -0.481395 0.365289 0.000000 0.500000 0.500000
0.186356 0.465429 -0.105362 1.000000 0.000000 0.000000
-0.337383 -0.069895 0.365230 0.600000 0.000000 0.300000
0.164329 -0.771997 -0.416327 0.600000 0.000000 0.300000
-0.284890 -0.522372 -0.143037 0.600000 0.300000 0.000000
0.421845 0.460429 -0.017124 0.800000 0.200000 0.500000
0.227884 -0.153721 0.365230 0.000000 1.000000 0.000000
-0.514396 -0.108532 -0.414556 0.000000 0.500000 0.500000
-0.490236 -0.032863 0.332666 0.300000 0.000000 0.600000
-0.200224 -0.573934 0.137209 0.600000 0.000000 0.300000
-0.492686 -0.214124 0.300102 0.000000 0.500000 0.500000
0.260536 0.443720 -0.214455 0.000000 0.000000 1.000000
-0.122561 0.541564 -0.242648 0.000000 0.000000 1.000000
-0.405536 0.573979 0.027899 0.600000 0.000000 0.300000
-0.071490 -0.508911 -0.242589 0.300000 0.000000 0.600000
-0.492686 -0.275346 0.071263 0.000000 0.500000 0.500000
0.101391 0.637839 -0.383762 0.600000 0.300000 0.000000
0.484261 0.206255 -0.089409 0.500000 0.000000 0.500000
0.026784 0.191041 0.365230 0.500000 0.000000 0.500000
-0.051723 0.327029 0.359342 0.000000 0.000000 1.000000
0.234238 -0.595501 0.365289 0.000000 0.500000 0.500000
0.354059 0.567782 -0.416327 0.600000 0.300000 0.000000
0.336248 -0.339635 0.365289 0.000000 0.500000 0.500000
-0.209303 0.291750 0.364387 0.500000 0.000000 0.500000
-0.031191 -0.573934 -0.263859 0.600000 0.000000 0.300000
-0.124635 -0.355846 0.332724 0.000000 0.500000 0.500000
0.103567 -0.556450 -0.383762 0.300000 0.600000 0.000000
0.505971 0.452370 -0.088950 0.500000 0.000000 0.500000
0.207673 0.147467 0.397795 0.500000 0.000000 0.500000
-0.110128 0.349500 0.390482 0.500000 0.000000 0.500000
0.329467 -0.090888 0.095739 0.000000 1.000000 0.000000
-0.514396 -0.639180 -0.135093 1.000000 0.000000 0.000000
0.409271 0.573979 -0.221409 0.800000 0.200000 0.500000
0.078647 0.465429 0.229421 1.000000 0.000000 0.000000
0.484261 -0.025021 -0.067880 0.500000 0.000000 0.500000
-0.021769 0.203481 -0.210083 0.600000 0.000000 0.300000
-0.261243 0.608341 -0.383762 0.300000 0.600000 0.000000
-0.430270 0.233713 -0.141440 0.000000 0.500000 0.500000
-0.469246 0.459435 0.365230 0.300000 0.000000 0.600000
-0.514396 -0.734239 -0.408513 1.000000 0.000000 0.000000
