ply
format ascii 1.0
element vertex 1305
property float x
property float y
property float z
property uchar red
property uchar green
property uchar blue
end_header
-0.861466 0.042298 -0.069874 204 51 127
0.115670 0.053694 -0.287324 255 0 0
-0.671274 -0.012451 0.306775 255 0 0
-0.647644 -0.014962 0.055229 255 0 0
0.028613 -0.017998 0.356595 255 0 0
0.002919 0.002153 0.175611 255 0 0
0.426349 -0.036747 -0.294596 255 0 0
-0.312823 -0.046235 0.336117 255 0 0
0.093226 0.024967 -0.263501 255 0 0
0.510319 -0.007917 0.266050 255 0 0
0.284088 -0.021609 0.206318 255 0 0
0.623600 -0.000934 0.203338 255 0 0
0.399502 0.043465 -0.364986 255 0 0
-0.538052 0.024775 -0.210296 255 0 0
-0.459411 0.011414 -0.382874 255 0 0
-0.454268 0.044167 -0.086665 76 153 0
0.294492 0.035502 -0.372152 255 0 0
0.156191 0.001654 0.180095 255 0 0
0.248359 0.044441 -0.089126 153 0 76
-0.860052 -0.019770 0.189800 255 0 0
0.114241 -0.002033 0.030492 255 0 0
0.600690 0.013160 -0.270237 255 0 0
0.480491 -0.028663 0.269675 255 0 0
-0.464812 -0.026955 0.437045 255 0 0
0.529374 0.033307 -0.104211 255 0 0
-0.097726 -0.037725 0.351075 255 0 0
-0.757771 -0.018209 -0.373510 255 0 0
0.481750 -0.023667 0.407517 255 0 0
0.373741 -0.035964 0.243873 255 0 0
-0.358600 0.015115 0.059181 255 0 0
-0.601611 -0.054682 -0.320565 255 0 0
0.705642 0.023171 -0.013175 255 0 0
-0.789452 -0.024599 0.141785 255 0 0
0.027017 0.038519 -0.035933 153 0 76
0.366479 -0.024610 0.141890 255 0 0
-0.297571 0.039528 -0.160084 255 0 0
0.749389 -0.011425 0.297560 255 0 0
-0.410435 -0.001117 -0.069121 255 0 0
0.149127 -0.021833 0.391044 255 0 0
-0.426773 -0.054855 -0.332811 255 0 0
-0.851390 -0.010040 0.285117 255 0 0
0.010878 -0.039591 0.367831 255 0 0
0.329102 -0.004966 0.056832 255 0 0
0.546755 0.006632 -0.377185 255 0 0
0.161127 0.046075 -0.218887 255 0 0
0.640092 0.002461 0.172844 255 0 0
0.602290 -0.023883 0.135360 255 0 0
-0.648901 -0.041564 0.294163 255 0 0
0.194819 0.018621 -0.155024 255 0 0
-0.041800 -0.013555 0.042596 255 0 0
0.396758 -0.039759 0.369338 255 0 0
0.047165 -0.016731 0.345217 255 0 0
-0.286770 0.030613 -0.080011 255 0 0
0.310612 -0.012302 0.419735 127 0 127
-0.007255 -0.019261 0.367946 255 0 0
0.726519 0.008108 0.237212 204 51 127
0.572969 0.047120 -0.228277 255 0 0
-0.802434 -0.054606 -0.334700 255 0 0
0.691703 -0.044252 0.318314 255 0 0
-0.907113 0.026104 -0.261954 255 0 0
0.782452 0.000362 -0.082407 255 0 0
0.292068 -0.026073 0.246416 255 0 0
-0.513016 -0.035525 0.331309 255 0 0
-0.371382 0.028835 -0.369373 255 0 0
0.060391 0.000153 0.308658 0 127 127
-0.310557 -0.033370 0.220572 255 0 0
-0.860472 0.036320 -0.016179 0 0 255
-0.141008 0.053563 -0.286145 255 0 0
0.227517 -0.051774 0.385874 255 0 0
-0.363321 0.005604 0.144607 255 0 0
0.748958 0.047228 -0.229249 255 0 0
-0.343507 -0.040222 0.373499 255 0 0
-0.631993 0.009113 -0.069620 255 0 0
-0.259218 0.019271 0.021856 255 0 0
-0.131508 0.000773 -0.270551 255 0 0
-0.532118 0.004865 0.151248 255 0 0
0.248611 -0.040640 -0.289379 255 0 0
0.538275 0.001104 0.185034 255 0 0
0.232611 0.010111 0.104128 255 0 0
0.376089 -0.015955 0.386765 127 127 0
0.787617 0.045615 -0.214757 255 0 0
-0.773858 -0.034507 -0.363014 255 0 0
0.340999 0.037533 -0.142168 255 0 0
-0.428454 0.016003 -0.131504 255 0 0
-0.765437 0.046567 -0.223313 255 0 0
-0.031884 -0.018618 -0.281350 255 0 0
0.657026 0.002079 -0.006443 255 0 0
0.816404 -0.042728 0.396011 255 0 0
-0.062109 -0.038773 0.269102 255 0 0
0.453485 -0.011353 0.296914 255 0 0
-0.660065 -0.011896 0.350081 76 0 153
-0.219017 -0.003124 0.338094 0 127 127
0.462101 0.044645 -0.206049 255 0 0
-0.333045 -0.017182 0.166554 255 0 0
0.123728 -0.001159 0.320445 0 127 127
-0.700363 -0.032900 0.216348 255 0 0
0.260333 0.048943 -0.129556 153 0 76
-0.190170 -0.011145 -0.382571 255 0 0
0.102841 -0.036119 0.336646 255 0 0
0.260145 -0.045359 0.328252 255 0 0
-0.607801 0.000134 -0.080359 255 0 0
0.307912 0.001514 0.181347 255 0 0
0.302932 -0.020188 0.376267 255 0 0
-0.415166 -0.050490 0.374335 255 0 0
0.818949 0.018072 0.032624 255 0 0
0.479973 0.033540 -0.013823 76 0 153
-0.156111 -0.047224 0.345004 255 0 0
-0.434845 0.028768 -0.246163 255 0 0
0.294772 0.013029 0.077916 255 0 0
0.501859 -0.053816 0.420199 255 0 0
-0.123935 0.040701 -0.170627 255 0 0
-0.080977 -0.055496 -0.326749 255 0 0
-0.689899 0.013840 -0.203467 255 0 0
0.321724 0.047487 -0.231573 255 0 0
-0.187796 0.008622 -0.156595 255 0 0
0.106812 0.013455 -0.200008 255 0 0
-0.571626 -0.049932 -0.303684 255 0 0
-0.309142 -0.041871 0.388312 255 0 0
0.436900 0.040157 -0.071617 127 127 0
0.754648 0.032405 -0.096112 255 0 0
-0.601890 -0.026833 -0.285758 255 0 0
-0.180342 -0.002324 0.033107 255 0 0
-0.240035 0.033980 -0.365424 255 0 0
0.002665 -0.010311 0.402651 0 127 127
-0.795248 0.001846 0.178366 255 0 0
0.443805 0.046071 -0.218856 255 0 0
-0.458495 0.031863 -0.374944 255 0 0
-0.411680 0.024308 -0.206104 255 0 0
0.011887 -0.055308 0.417618 255 0 0
0.606606 0.008724 -0.157512 255 0 0
0.268774 -0.039704 0.277461 255 0 0
0.457268 0.002209 0.175101 255 0 0
-0.634381 -0.051878 0.386806 255 0 0
-0.726022 0.034202 -0.112253 255 0 0
-0.194276 0.004619 -0.120642 255 0 0
0.187834 0.049363 -0.312460 255 0 0
-0.300812 -0.009016 0.001821 255 0 0
-0.865165 0.011540 0.091294 255 0 0
-0.664569 -0.007624 0.263422 255 0 0
-0.596584 -0.002270 -0.058764 255 0 0
0.810548 0.054865 -0.183064 76 0 153
-0.415611 0.018396 0.144808 153 76 0
-0.765149 -0.041877 -0.290991 255 0 0
0.460022 0.033380 -0.104869 255 0 0
0.439481 -0.035082 0.327332 255 0 0
0.486570 0.005474 -0.036940 255 0 0
0.619406 0.008590 0.232886 204 51 127
-0.229878 -0.014924 0.146275 255 0 0
-0.123660 -0.050580 0.375150 255 0 0
-0.538943 0.033342 -0.288776 255 0 0
0.513597 -0.019693 0.189113 255 0 0
-0.658397 0.010715 -0.175402 255 0 0
0.737762 -0.003338 0.042216 255 0 0
0.650054 -0.017935 -0.380403 255 0 0
-0.850057 0.007941 -0.059093 255 0 0
0.729153 0.035245 -0.121621 255 0 0
0.296096 0.032128 -0.093626 255 0 0
-0.721431 0.012749 -0.193664 255 0 0
-0.626872 0.050743 -0.335615 255 0 0
-0.539946 -0.016536 0.417390 153 0 76
-0.460428 -0.015458 0.333784 255 0 0
0.341156 -0.029333 0.275693 255 0 0
-0.278654 -0.008185 0.085747 255 0 0
0.856479 0.016119 0.050172 255 0 0
0.574523 -0.038486 0.357905 255 0 0
-0.388843 0.003852 -0.022364 255 0 0
-0.550471 0.020577 -0.172591 255 0 0
-0.340703 -0.021613 0.389064 255 0 0
-0.165515 -0.034677 -0.370809 255 0 0
0.781682 -0.006717 0.370364 0 0 255
-0.639117 0.018755 0.026491 255 0 0
0.032394 0.043703 -0.354386 255 0 0
-0.113507 0.055370 -0.302376 255 0 0
0.609069 -0.021826 0.208270 255 0 0
-0.195942 -0.019764 0.372464 255 0 0
0.035874 -0.002573 -0.056044 255 0 0
-0.098398 0.033421 -0.068481 204 51 127
-0.538805 0.051789 -0.270212 255 0 0
0.583982 0.022835 -0.282029 255 0 0
-0.135630 -0.054325 0.408786 255 0 0
-0.551970 -0.053762 -0.313579 255 0 0
0.528813 -0.021925 0.117768 255 0 0
-0.399602 0.034821 -0.002714 127 127 0
0.067191 0.051116 -0.264163 255 0 0
-0.040443 0.003051 -0.015169 255 0 0
0.598919 -0.006852 0.256492 255 0 0
-0.609835 0.035814 -0.126728 255 0 0
-0.682349 0.017891 -0.148462 255 0 0
0.332800 0.028106 -0.057495 255 0 0
-0.821252 0.045713 -0.303648 255 0 0
-0.175971 0.004814 0.151710 255 0 0
0.456456 0.012107 -0.096514 255 0 0
-0.315940 -0.007666 0.081088 255 0 0
0.261296 -0.008667 0.387888 127 0 127
0.618827 0.011495 -0.091014 255 0 0
-0.616461 -0.035787 0.333669 255 0 0
-0.912785 0.010011 -0.297772 255 0 0
0.819556 0.001467 0.181770 255 0 0
0.061580 -0.049642 0.366721 255 0 0
0.583205 0.043271 -0.193706 255 0 0
-0.286038 0.039290 -0.136359 0 255 0
0.346433 0.006284 -0.135597 255 0 0
0.304859 -0.023341 0.130487 255 0 0
-0.253910 -0.006751 0.072870 255 0 0
-0.683859 -0.003203 0.223710 255 0 0
0.638921 -0.012823 0.127406 255 0 0
-0.694550 -0.027408 -0.376386 255 0 0
0.399864 -0.033020 -0.372080 255 0 0
0.779099 -0.041834 0.296596 255 0 0
-0.483554 0.045747 -0.215944 255 0 0
0.827100 -0.010910 0.110225 255 0 0
0.527802 -0.013296 -0.272403 255 0 0
0.213562 0.052497 -0.161475 153 0 76
0.797567 -0.049074 0.361619 255 0 0
-0.887513 0.006670 -0.137234 255 0 0
-0.016607 0.023355 -0.197542 255 0 0
-0.601797 0.025631 -0.217985 255 0 0
-0.097445 -0.006804 -0.271548 255 0 0
0.216316 0.023328 -0.014578 255 0 0
-0.184950 0.044869 -0.136926 0 255 0
0.086203 0.055980 -0.192762 153 76 0
0.399852 0.008383 -0.154451 255 0 0
0.536650 -0.003144 -0.050921 255 0 0
0.673882 0.004184 0.272453 204 51 127
-0.220058 -0.034716 -0.370779 255 0 0
-0.327179 -0.019912 0.373789 255 0 0
0.202986 0.019734 0.132797 127 0 127
-0.597381 -0.019326 0.368528 255 0 0
0.328932 -0.027474 0.167609 255 0 0
-0.475310 -0.013952 0.137548 255 0 0
0.340525 -0.042809 0.396733 255 0 0
0.659098 -0.025813 0.244082 255 0 0
-0.431209 -0.009060 0.391417 76 153 0
-0.343268 0.030308 0.037822 127 0 127
-0.056710 0.053582 -0.286314 255 0 0
-0.697118 0.048304 -0.309904 255 0 0
-0.233539 0.003634 -0.020406 255 0 0
0.825954 0.014913 0.060999 255 0 0
-0.720209 0.003898 -0.022780 255 0 0
0.339074 -0.018974 0.365369 255 0 0
0.645802 -0.047829 -0.338185 255 0 0
-0.869543 0.021587 -0.181666 255 0 0
0.134712 0.009434 0.225301 76 0 153
0.150723 0.024292 -0.282633 255 0 0
0.427893 0.011808 -0.093826 255 0 0
-0.410346 0.029059 -0.248775 255 0 0
-0.449609 -0.032570 0.213388 255 0 0
-0.454695 0.022133 -0.186568 255 0 0
0.757569 0.008823 -0.158406 255 0 0
0.655054 0.024167 -0.204834 255 0 0
-0.257844 0.011437 -0.090497 255 0 0
0.438593 -0.023119 0.128492 255 0 0
-0.003141 0.027060 -0.283956 255 0 0
-0.308317 0.046941 -0.111580 127 0 127
0.692752 0.045736 -0.350985 255 0 0
-0.101393 -0.044831 0.323514 255 0 0
0.494913 0.035399 -0.122999 255 0 0
-0.516253 0.055523 -0.303753 255 0 0
0.292112 -0.000504 0.016757 255 0 0
-0.906669 0.017030 0.041983 255 0 0
0.609343 -0.048945 -0.324983 255 0 0
-0.831748 0.038101 -0.147270 255 0 0
0.463723 0.018013 -0.149559 255 0 0
-0.250426 0.035876 -0.127289 255 0 0
-0.886003 0.008774 0.116134 255 0 0
0.668870 -0.025764 -0.277530 255 0 0
0.567973 0.005592 0.259814 153 0 76
-0.413638 -0.015186 0.148628 255 0 0
-0.471287 0.006691 0.134851 255 0 0
-0.052153 -0.022888 0.400519 255 0 0
-0.204381 0.047712 -0.233597 255 0 0
0.049671 0.002224 -0.099136 255 0 0
-0.896935 -0.026233 0.247854 255 0 0
0.135920 -0.046007 0.421068 255 0 0
-0.153634 0.031476 -0.087770 255 0 0
0.759825 0.047806 -0.119348 204 51 127
-0.542669 -0.045933 0.333410 255 0 0
-0.673462 -0.020911 0.382765 255 0 0
-0.764132 0.052126 -0.351928 255 0 0
-0.755854 -0.014801 0.145173 255 0 0
0.208745 0.026152 -0.039947 255 0 0
0.655314 -0.006605 -0.277840 255 0 0
-0.437632 0.013410 -0.108220 255 0 0
0.008236 0.056326 -0.195866 153 76 0
-0.213758 0.003607 0.162925 76 0 153
0.794633 0.044418 -0.088915 204 51 127
-0.252254 0.001955 0.177381 255 0 0
-0.009863 -0.041683 0.386619 255 0 0
-0.644914 -0.022787 0.216899 255 0 0
0.566529 0.004000 -0.023700 255 0 0
-0.219226 0.028604 0.047952 0 127 127
0.553007 -0.036958 0.344179 255 0 0
-0.029101 -0.046366 0.428684 255 0 0
0.688590 0.000555 0.189964 255 0 0
-0.224586 -0.045089 -0.295177 255 0 0
0.286209 -0.048113 -0.318665 255 0 0
-0.426455 -0.022348 0.212957 255 0 0
-0.319125 -0.003759 0.228705 255 0 0
0.558167 0.040259 -0.165254 255 0 0
0.821169 -0.046971 0.434122 255 0 0
0.170577 -0.021195 0.202601 255 0 0
0.632924 0.035147 -0.290162 255 0 0
0.059979 0.022878 -0.193259 255 0 0
0.145594 0.028915 -0.247482 255 0 0
-0.808864 0.021719 -0.000132 255 0 0
-0.156523 0.021821 -0.001044 255 0 0
-0.004928 0.019020 0.024108 255 0 0
0.039217 -0.010319 0.287631 255 0 0
-0.090962 -0.004063 0.231435 255 0 0
-0.023134 -0.011563 0.024704 255 0 0
-0.877772 -0.053591 -0.312516 255 0 0
-0.360977 -0.047233 -0.313536 255 0 0
0.518581 0.019389 0.020795 255 0 0
-0.472645 -0.008775 0.273756 255 0 0
0.622411 0.011109 0.095163 255 0 0
0.478026 -0.031506 0.203823 255 0 0
0.260675 0.047325 -0.230115 255 0 0
0.352506 0.046339 -0.221266 255 0 0
0.791636 -0.010747 0.406571 0 0 255
-0.286018 -0.000023 0.012436 255 0 0
0.043873 0.053034 -0.281393 255 0 0
-0.640840 0.002226 0.174948 255 0 0
-0.293227 0.017247 0.155129 76 0 153
-0.787681 -0.014893 0.328710 255 0 0
0.863517 0.026429 -0.042434 255 0 0
0.164477 -0.005271 0.242285 255 0 0
0.695977 -0.042574 0.394627 255 0 0
0.589868 -0.016348 0.159065 255 0 0
-0.854980 0.001657 -0.002652 255 0 0
0.303729 0.049225 -0.247183 255 0 0
-0.106164 -0.054055 -0.338889 255 0 0
0.224457 -0.016940 0.349365 127 0 127
-0.076636 0.050374 -0.257503 255 0 0
-0.221927 -0.037482 0.348894 255 0 0
-0.711620 -0.004455 0.234959 255 0 0
-0.324121 0.027896 -0.055608 255 0 0
0.771466 -0.050862 0.377677 255 0 0
0.502688 0.051754 -0.269898 255 0 0
-0.528650 -0.015071 0.358700 76 153 0
-0.310210 -0.006150 0.250183 255 0 0
0.528100 0.016731 0.065065 255 0 0
-0.476113 -0.014301 0.049296 255 0 0
0.204822 -0.013750 0.044346 255 0 0
0.212487 -0.007311 -0.013494 255 0 0
-0.289354 -0.020013 0.191986 255 0 0
0.848645 0.020412 -0.171104 255 0 0
0.386564 0.036870 -0.136216 255 0 0
-0.185189 0.051513 -0.267735 255 0 0
-0.341253 -0.012187 0.304402 255 0 0
0.672564 0.031972 -0.092222 255 0 0
0.295484 0.007082 0.131334 255 0 0
-0.860927 0.050076 -0.254828 255 0 0
0.356992 0.037588 -0.027565 153 76 0
0.359470 -0.051204 0.380749 255 0 0
-0.008952 0.005636 -0.383635 255 0 0
0.821090 0.014496 -0.117971 255 0 0
-0.441574 0.004744 0.152333 255 0 0
0.547825 0.016636 0.160626 255 0 0
0.507838 0.000696 0.188692 255 0 0
0.663870 -0.045037 0.416752 255 0 0
0.053753 0.044186 -0.201922 255 0 0
0.076612 -0.030443 0.194282 255 0 0
0.140923 -0.027318 0.257602 255 0 0
-0.489520 0.016788 0.159253 76 0 153
-0.092835 0.050972 -0.320810 255 0 0
-0.368187 -0.034668 0.442673 255 0 0
0.427743 -0.051832 -0.308270 255 0 0
0.175016 0.035957 -0.012923 76 0 153
-0.609422 -0.047619 -0.339779 255 0 0
0.262346 -0.051396 0.382480 255 0 0
-0.822493 -0.023851 0.135069 255 0 0
0.763688 0.039296 -0.158005 255 0 0
0.148449 0.039448 -0.359931 255 0 0
-0.663451 -0.011845 0.416426 76 0 153
-0.234444 -0.015629 0.419365 0 127 127
0.506087 0.015523 -0.218586 255 0 0
-0.385946 0.054697 -0.345720 255 0 0
-0.231525 0.008914 -0.067833 255 0 0
0.146430 -0.002438 0.034127 255 0 0
-0.248530 -0.019398 -0.274893 255 0 0
0.732167 0.010458 0.101014 255 0 0
-0.813432 -0.036566 0.340665 255 0 0
0.489644 0.020994 -0.176332 255 0 0
-0.633259 0.011289 0.093552 255 0 0
-0.088743 0.047816 -0.168592 204 51 127
0.676623 0.002236 -0.377764 255 0 0
0.580584 -0.011823 0.301138 255 0 0
-0.654874 0.007175 -0.052214 255 0 0
-0.272210 -0.047498 0.347469 255 0 0
-0.412332 0.005288 0.262538 127 0 127
0.510737 -0.025950 -0.377083 255 0 0
-0.567998 -0.029353 -0.287692 255 0 0
-0.019181 0.054015 -0.347366 255 0 0
-0.881932 -0.025541 0.424347 255 0 0
-0.751714 -0.046175 0.421050 255 0 0
0.757539 -0.011874 0.416688 0 0 255
0.719789 0.053918 -0.225868 153 0 76
0.019479 0.027077 0.065582 76 153 0
-0.673017 -0.030557 0.195300 255 0 0
-0.852980 -0.021371 0.386895 255 0 0
-0.666648 0.000405 0.191310 255 0 0
-0.896894 -0.046163 0.437562 255 0 0
-0.895153 -0.008830 0.091542 255 0 0
0.118924 -0.017341 0.350696 255 0 0
-0.731678 -0.041814 0.387799 255 0 0
0.304565 -0.053462 0.401034 255 0 0
-0.588425 0.001297 0.183295 255 0 0
0.254706 0.009551 0.224256 153 76 0
-0.167397 -0.026325 0.248679 255 0 0
-0.776309 0.000834 -0.086648 255 0 0
-0.697620 0.024447 -0.024637 255 0 0
-0.190601 -0.035775 0.333558 255 0 0
0.525463 0.006249 0.151416 255 0 0
-0.839478 -0.004597 -0.037866 255 0 0
-0.427663 0.009172 -0.070153 255 0 0
-0.636894 0.026024 -0.378120 255 0 0
0.093042 0.060031 -0.230961 153 76 0
0.518771 0.016894 0.043208 255 0 0
0.766520 -0.000268 0.014640 255 0 0
-0.338303 0.041558 -0.178321 255 0 0
-0.032931 0.022148 -0.003980 255 0 0
-0.216146 0.017520 -0.269041 255 0 0
-0.147283 -0.011236 0.295867 255 0 0
-0.727046 -0.035616 -0.293121 255 0 0
-0.390277 -0.052855 0.395582 255 0 0
0.124375 0.013803 -0.382560 255 0 0
-0.455979 -0.012955 0.128594 255 0 0
0.737629 0.014700 -0.211188 255 0 0
0.634157 -0.055073 -0.323539 255 0 0
0.407626 0.008723 0.231692 76 0 153
0.820659 -0.000383 0.015672 255 0 0
-0.150236 -0.041917 0.388724 255 0 0
-0.828589 0.011281 0.093623 255 0 0
0.220851 0.031998 0.022636 76 0 153
-0.141138 -0.048784 -0.323759 255 0 0
-0.000475 0.001980 -0.005556 255 0 0
0.062908 0.034525 -0.000059 153 0 76
-0.868579 -0.011218 0.112991 255 0 0
0.180655 -0.020985 -0.379140 255 0 0
-0.242045 0.009301 0.226501 0 127 127
-0.451543 -0.024159 0.418415 76 153 0
-0.220925 0.011895 0.203201 0 127 127
-0.059837 0.035603 -0.009738 76 153 0
0.634727 -0.035194 0.236953 255 0 0
0.823717 -0.004232 -0.041145 255 0 0
-0.784613 -0.008664 0.272762 255 0 0
0.155535 -0.054959 -0.332017 255 0 0
0.760039 0.020170 0.013783 255 0 0
-0.189364 0.056975 -0.201700 0 0 255
0.265149 0.022625 -0.190989 255 0 0
-0.593535 -0.014223 0.048592 255 0 0
-0.200851 -0.042560 0.394497 255 0 0
0.125861 -0.046216 -0.311082 255 0 0
0.670599 -0.017113 0.074554 255 0 0
-0.259365 0.031654 -0.089360 255 0 0
-0.312835 0.002040 -0.097480 255 0 0
0.627772 0.025608 -0.217780 255 0 0
0.422441 0.023077 -0.012332 255 0 0
0.172872 -0.052091 0.388723 255 0 0
-0.313460 -0.012088 0.303519 255 0 0
-0.326834 0.013033 0.192980 127 127 0
0.642080 0.043350 -0.194420 255 0 0
0.234345 0.051991 -0.272028 255 0 0
0.134291 0.035462 -0.008476 76 0 153
0.794070 -0.037226 0.255206 255 0 0
-0.549042 -0.007627 0.080736 255 0 0
0.117288 -0.014532 0.142758 255 0 0
0.425406 -0.013190 0.313414 255 0 0
-0.219085 -0.013065 0.129578 255 0 0
-0.882828 0.028739 -0.063182 255 0 0
0.845507 -0.054255 -0.337367 255 0 0
0.132240 -0.009069 0.093688 255 0 0
-0.402550 -0.033937 0.317048 255 0 0
0.541197 0.008066 0.122499 255 0 0
-0.213538 0.015281 -0.216411 255 0 0
0.696832 0.025924 0.077192 0 0 255
0.689152 -0.054392 0.409389 255 0 0
0.384598 0.045413 -0.097850 127 0 127
0.565103 0.012205 0.200412 153 0 76
0.131962 0.007125 0.130951 255 0 0
-0.112550 0.049160 -0.246597 255 0 0
0.634284 0.059853 -0.227549 153 0 76
-0.752194 -0.017940 0.173367 255 0 0
0.805339 0.013495 -0.200366 255 0 0
0.154926 -0.011112 0.112033 255 0 0
0.739781 -0.027466 0.258929 255 0 0
-0.622273 -0.001713 0.027616 255 0 0
-0.776934 0.038856 -0.038961 0 0 255
-0.515401 0.016127 -0.224004 255 0 0
-0.565634 -0.028355 0.266915 255 0 0
-0.892568 0.034782 -0.095672 204 51 127
-0.896992 -0.004307 0.050912 255 0 0
0.027735 -0.033884 0.316570 255 0 0
0.209072 0.032241 -0.094639 255 0 0
-0.600026 0.015225 0.058200 255 0 0
0.663031 0.016102 0.165414 0 0 255
-0.593373 0.051996 -0.156981 76 0 153
-0.452725 0.014121 -0.205992 255 0 0
-0.785398 -0.000133 0.196139 255 0 0
-0.484511 -0.051423 0.382720 255 0 0
0.081276 -0.041895 0.388526 255 0 0
0.626908 0.027102 0.065632 255 0 0
0.074678 -0.030650 0.287522 255 0 0
0.697128 0.016098 -0.223749 255 0 0
0.203141 -0.039198 -0.356900 255 0 0
-0.181003 -0.002781 0.219919 255 0 0
-0.040068 -0.025497 0.241239 255 0 0
0.458816 0.015980 0.051414 255 0 0
0.822258 0.030308 -0.077272 255 0 0
-0.888220 0.056373 -0.311384 255 0 0
-0.145210 -0.000656 0.018126 255 0 0
-0.675612 0.011248 0.093916 255 0 0
0.186418 0.047408 -0.230865 255 0 0
0.516068 -0.007065 0.075687 255 0 0
0.536924 0.035725 -0.010834 153 0 76
0.166018 0.053930 -0.347572 255 0 0
0.171109 -0.009783 0.008713 255 0 0
0.393863 0.014002 -0.113533 255 0 0
-0.568405 -0.031769 0.297572 255 0 0
-0.194065 0.051147 -0.354291 255 0 0
0.856753 -0.018997 -0.281507 255 0 0
-0.406106 -0.027291 0.440064 255 0 0
0.237361 0.024938 0.000287 76 0 153
0.416520 -0.007285 -0.013719 255 0 0
0.283707 -0.045657 -0.295917 255 0 0
0.156800 0.024394 -0.024158 255 0 0
-0.415174 0.002490 -0.010135 255 0 0
0.517295 -0.025571 0.424618 255 0 0
0.628715 -0.019044 -0.379944 255 0 0
0.136480 0.016511 0.046644 255 0 0
0.833268 0.061409 -0.241523 76 0 153
-0.137393 -0.009862 0.398618 0 127 127
0.545185 0.050989 -0.263029 255 0 0
0.266845 0.002798 -0.012898 255 0 0
-0.867150 -0.005703 0.361264 153 76 0
0.013201 0.031232 -0.085570 255 0 0
-0.602592 -0.029166 0.182807 255 0 0
-0.865406 0.046943 -0.348073 255 0 0
0.456536 -0.011199 0.112815 255 0 0
-0.110972 0.050878 -0.354942 255 0 0
0.523006 0.010657 0.099230 255 0 0
-0.527916 0.007581 -0.055865 255 0 0
-0.091868 -0.000623 -0.383956 255 0 0
-0.731698 0.055376 -0.302434 255 0 0
0.424309 -0.043821 0.405826 255 0 0
-0.704530 -0.000159 0.196371 255 0 0
-0.038085 -0.014348 0.323817 255 0 0
0.696818 -0.010336 0.287780 255 0 0
-0.099310 -0.002900 -0.053105 255 0 0
-0.613525 0.031368 -0.086793 255 0 0
0.273612 0.053008 -0.166064 153 0 76
0.764160 0.051717 -0.328219 255 0 0
-0.279887 0.029607 0.044115 127 0 127
0.671113 -0.005828 -0.026812 255 0 0
0.308251 0.021317 -0.373289 255 0 0
-0.118739 0.037496 -0.141839 255 0 0
-0.610335 0.017642 0.151587 153 0 76
-0.651095 0.010920 0.211954 255 0 0
-0.496827 -0.010984 0.408700 76 153 0
0.654639 0.054426 -0.346374 255 0 0
-0.763940 0.054747 -0.296782 255 0 0
-0.883067 -0.003424 0.225694 255 0 0
0.648818 0.010454 0.101049 255 0 0
-0.421883 -0.035748 0.333315 255 0 0
0.144515 0.047746 -0.233903 255 0 0
0.410323 -0.048314 -0.320185 255 0 0
-0.427606 -0.027309 0.166129 255 0 0
-0.745149 0.026767 -0.228189 255 0 0
0.809436 0.007897 0.124017 255 0 0
0.152416 -0.053843 0.404451 255 0 0
-0.665438 0.050678 -0.145142 153 76 0
-0.651720 0.050447 -0.337870 255 0 0
-0.330409 -0.023285 0.129984 255 0 0
0.587486 0.002896 0.282040 204 51 127
0.456311 -0.054469 -0.335743 255 0 0
-0.814663 -0.020118 0.192925 255 0 0
-0.829541 -0.040868 0.379300 255 0 0
0.763285 -0.022544 0.397430 255 0 0
-0.713191 -0.029792 0.188435 255 0 0
-0.157402 0.043789 -0.198362 255 0 0
-0.253125 -0.036529 0.340328 255 0 0
0.492297 -0.045401 -0.309113 255 0 0
0.284571 -0.006453 0.368002 127 0 127
0.161545 0.012258 0.142876 127 0 127
0.161545 0.020456 0.074530 127 0 127
0.755923 -0.038689 0.359734 255 0 0
0.091119 -0.001388 0.253077 153 0 76
-0.796326 -0.019080 0.366319 255 0 0
0.094849 0.032110 -0.093458 255 0 0
0.267225 0.021202 -0.281353 255 0 0
0.029918 -0.007912 0.266014 255 0 0
-0.785581 0.014448 0.065175 255 0 0
-0.850494 -0.027527 -0.278395 255 0 0
-0.456839 0.057081 -0.202648 0 127 127
0.209691 0.010807 0.212969 76 0 153
0.314109 0.018786 0.141310 127 127 0
-0.054174 -0.000782 0.201968 255 0 0
0.865980 0.003998 0.159035 255 0 0
0.573608 -0.000147 0.013548 255 0 0
-0.492443 -0.019541 0.370457 255 0 0
0.266104 0.043781 -0.198283 255 0 0
-0.238001 -0.055035 -0.331437 255 0 0
-0.528617 0.005339 0.262087 0 255 0
0.042540 0.010737 0.213598 153 0 76
0.412482 -0.024330 0.230759 255 0 0
0.062937 0.037651 -0.143228 255 0 0
0.866367 0.010736 -0.273679 255 0 0
-0.764085 -0.007392 -0.012760 255 0 0
-0.130069 -0.004551 0.235823 255 0 0
0.398258 -0.025851 0.427129 255 0 0
0.402936 -0.009165 0.392361 127 127 0
0.292935 -0.009499 0.395359 127 0 127
-0.106889 -0.042732 0.396047 255 0 0
0.852430 0.052400 -0.351266 255 0 0
-0.356892 -0.001929 0.212272 255 0 0
0.695645 0.017688 0.151171 0 0 255
-0.607621 0.055529 -0.303805 255 0 0
0.329777 0.043828 -0.184292 0 127 127
0.255943 0.033387 0.010167 153 76 0
-0.782782 0.002939 -0.105552 255 0 0
0.543018 0.023333 0.100471 255 0 0
0.000360 0.038792 -0.153478 255 0 0
-0.239692 0.010351 0.101974 255 0 0
-0.813534 0.039411 -0.043943 0 0 255
-0.080902 0.019315 -0.161254 255 0 0
-0.493136 0.061861 -0.248399 0 127 127
0.140244 -0.027944 -0.375974 255 0 0
-0.037724 -0.006296 0.251490 255 0 0
0.321468 0.028895 -0.255303 255 0 0
0.260172 -0.023310 0.404306 255 0 0
-0.390471 -0.026090 0.155179 255 0 0
0.829292 -0.010471 0.288993 255 0 0
0.511639 -0.004034 0.231182 255 0 0
0.027012 -0.037375 0.347933 255 0 0
-0.165146 0.012707 0.080809 255 0 0
-0.591443 0.012690 -0.193134 255 0 0
0.796967 0.018051 0.032815 255 0 0
0.144567 -0.017600 0.353029 255 0 0
-0.195875 -0.026376 0.431851 255 0 0
-0.152970 0.005283 0.147497 255 0 0
0.719576 0.057282 -0.204459 153 0 76
0.291491 0.020322 0.012417 255 0 0
0.739934 0.019245 0.137184 0 0 255
-0.104289 0.005830 0.142585 255 0 0
-0.122674 0.005487 -0.128438 255 0 0
-0.732130 -0.027061 0.163904 255 0 0
-0.070967 0.008894 0.230157 76 153 0
-0.197677 -0.019088 0.183676 255 0 0
0.584326 0.038757 -0.293858 255 0 0
-0.488087 0.035785 -0.011373 0 255 0
-0.491949 -0.032305 0.211007 255 0 0
-0.825277 -0.053710 -0.341508 255 0 0
0.367924 0.014040 0.068845 255 0 0
0.497812 -0.015031 0.147238 255 0 0
0.606641 -0.002908 0.221062 255 0 0
0.266718 -0.015756 0.336467 255 0 0
-0.779610 -0.002104 0.031127 255 0 0
0.611137 0.048204 -0.309661 255 0 0
0.767757 0.037022 -0.022484 255 0 0
0.814219 0.036060 -0.013845 255 0 0
-0.550805 -0.020661 0.197805 255 0 0
-0.469518 0.012192 -0.097273 255 0 0
-0.749428 -0.040840 0.287663 255 0 0
-0.694793 -0.053186 -0.311538 255 0 0
0.266634 0.003667 -0.112089 255 0 0
-0.261319 0.007402 -0.054255 255 0 0
-0.478416 0.013493 0.188847 127 0 127
-0.708685 -0.048307 -0.334557 255 0 0
0.687609 0.003614 -0.111613 255 0 0
0.598673 0.051045 -0.263528 255 0 0
0.635812 0.013222 -0.106525 255 0 0
0.767481 0.003205 -0.107943 255 0 0
-0.883749 0.004132 -0.116271 255 0 0
-0.203252 -0.005295 0.059794 255 0 0
0.034359 0.037689 -0.143573 255 0 0
0.467759 0.026918 -0.229542 255 0 0
0.101895 -0.024030 0.410778 255 0 0
-0.838790 -0.006697 0.370187 153 76 0
0.804329 -0.026517 0.159020 255 0 0
-0.636803 -0.028457 -0.367685 255 0 0
-0.182976 0.040071 -0.049871 0 127 127
0.387819 0.008475 0.118823 255 0 0
-0.060173 -0.036935 0.343973 255 0 0
0.749298 0.003477 -0.018999 255 0 0
-0.257255 0.027010 0.067439 76 0 153
0.031440 -0.040440 -0.355282 255 0 0
-0.096390 0.015482 0.055884 255 0 0
0.068638 0.060209 -0.230743 153 76 0
-0.209061 0.027574 -0.052719 255 0 0
0.172567 0.036103 -0.129320 255 0 0
0.317093 0.055844 -0.306632 255 0 0
0.152336 0.042293 -0.184463 76 153 0
-0.615754 0.007356 0.128874 255 0 0
0.036200 0.020190 -0.267664 255 0 0
-0.704984 0.001021 -0.377854 255 0 0
-0.521015 -0.006424 0.069930 255 0 0
-0.866428 0.028967 -0.247946 255 0 0
-0.147914 0.018797 -0.247993 255 0 0
-0.282452 0.022611 -0.190861 255 0 0
-0.803163 0.055087 -0.344778 255 0 0
0.190103 -0.006517 0.253484 255 0 0
0.043444 0.019265 0.021909 255 0 0
0.742929 0.010023 0.220013 204 51 127
0.098567 -0.016113 0.065571 255 0 0
0.328529 0.012168 -0.097065 255 0 0
0.804087 0.026708 0.070156 255 0 0
-0.711622 0.008870 -0.067435 255 0 0
-0.698745 0.040569 -0.169436 255 0 0
-0.198318 -0.033315 0.220071 255 0 0
0.653536 0.019693 0.018068 255 0 0
-0.822810 -0.021616 -0.378879 255 0 0
0.426469 0.004079 -0.277168 255 0 0
-0.567139 -0.012938 0.128436 255 0 0
0.863813 -0.043704 0.404770 255 0 0
0.410019 0.043663 -0.197224 255 0 0
-0.423784 0.015192 0.058493 255 0 0
0.171242 -0.028214 0.265643 255 0 0
0.609673 0.043127 -0.192414 255 0 0
0.613025 -0.043806 0.314305 255 0 0
-0.230838 -0.024415 0.231520 255 0 0
-0.510848 0.037540 -0.027143 0 255 0
-0.864741 0.025360 -0.032837 255 0 0
0.002592 -0.022616 0.215369 255 0 0
0.734831 0.056712 -0.314425 255 0 0
0.574472 -0.048659 -0.354078 255 0 0
0.716044 0.053605 -0.286523 255 0 0
0.810553 -0.040521 0.376182 255 0 0
0.041508 0.029344 0.046480 153 0 76
-0.032256 0.053529 -0.285840 255 0 0
0.408251 0.011123 0.095039 255 0 0
0.074506 0.048714 -0.127502 76 0 153
-0.524346 -0.023369 0.222133 255 0 0
-0.442601 -0.006423 0.069922 255 0 0
0.653314 0.057276 -0.204399 153 0 76
-0.156247 -0.046079 -0.343940 255 0 0
0.038103 0.005790 -0.131165 255 0 0
0.477346 0.031987 -0.092358 255 0 0
-0.239265 0.046513 -0.107735 0 255 0
0.389713 0.037919 -0.030541 76 0 153
-0.866831 0.004395 0.155470 255 0 0
0.022641 -0.027401 0.166952 255 0 0
-0.022564 -0.025640 0.425235 255 0 0
-0.618984 0.028228 -0.058596 255 0 0
-0.763040 -0.038432 0.266033 255 0 0
0.481994 0.005407 0.261468 153 0 76
-0.195062 -0.026377 0.249143 255 0 0
-0.394734 -0.038519 0.266814 255 0 0
-0.328282 -0.019957 0.191482 255 0 0
-0.471460 0.022605 -0.008085 255 0 0
0.196257 -0.013492 0.316127 255 0 0
-0.640520 0.017642 -0.146227 255 0 0
0.442751 0.021992 0.112510 0 255 0
0.551483 -0.016070 0.065184 255 0 0
0.295219 0.031247 -0.074235 153 0 76
-0.418688 0.057626 -0.331322 255 0 0
0.657316 -0.023138 0.402766 255 0 0
-0.597483 0.043612 -0.196769 255 0 0
-0.653695 0.024318 -0.023475 255 0 0
0.535116 -0.018025 0.082746 255 0 0
-0.390544 -0.002588 0.035472 255 0 0
-0.767686 0.026980 -0.230103 255 0 0
0.074583 0.031058 0.031083 153 0 76
0.156055 0.034277 -0.112925 255 0 0
0.192080 -0.006327 -0.271485 255 0 0
-0.091175 0.012891 0.106302 153 0 76
0.777899 0.002853 -0.013391 255 0 0
-0.856022 0.019123 0.023190 255 0 0
0.043284 -0.033447 0.221258 255 0 0
0.462072 -0.020160 0.193304 255 0 0
0.763676 -0.030814 0.288995 255 0 0
0.061620 -0.004347 0.349078 0 127 127
0.145292 -0.007348 0.260948 255 0 0
0.740864 -0.043257 -0.303938 255 0 0
-0.635956 -0.002814 -0.053884 255 0 0
-0.144563 0.021736 0.114813 153 0 76
0.654662 -0.036058 0.336096 255 0 0
-0.796486 0.016459 0.162209 204 51 127
0.229868 0.012626 -0.192559 255 0 0
-0.115228 0.059830 -0.227343 76 0 153
0.161729 0.022610 0.106961 127 0 127
-0.601033 0.010540 -0.173828 255 0 0
0.158790 0.018770 0.026360 255 0 0
0.818374 0.027769 -0.054475 255 0 0
-0.546883 0.023737 -0.251904 255 0 0
-0.129651 0.047555 -0.232186 255 0 0
-0.061266 0.055885 -0.342852 255 0 0
-0.062945 0.020513 -0.267447 255 0 0
-0.196471 0.012224 -0.188951 255 0 0
-0.626053 0.011317 -0.180802 255 0 0
-0.406424 0.012241 -0.097720 255 0 0
0.592130 0.000098 -0.080040 255 0 0
-0.232975 0.053989 -0.289969 255 0 0
-0.825763 0.012162 0.183434 0 0 255
-0.292712 -0.021064 0.384134 255 0 0
0.020241 -0.019924 0.191187 255 0 0
0.060547 -0.042271 -0.363185 255 0 0
0.051897 -0.004660 0.054086 255 0 0
-0.887443 -0.048836 -0.330533 255 0 0
0.420866 0.049885 -0.253108 255 0 0
0.159312 -0.013196 0.130759 255 0 0
-0.068079 0.012651 -0.101399 255 0 0
-0.453700 -0.004626 0.236493 255 0 0
-0.254540 0.023562 0.098413 76 0 153
0.794573 0.029355 -0.068713 255 0 0
0.168463 0.034911 -0.289981 255 0 0
-0.843958 0.008383 0.234743 0 0 255
-0.344132 -0.022663 0.215791 255 0 0
-0.462608 0.057897 -0.329265 255 0 0
0.428092 0.026116 0.065475 0 255 0
0.771281 -0.024358 0.139623 255 0 0
0.780038 -0.035835 0.334094 255 0 0
-0.755066 -0.049225 -0.352712 255 0 0
0.175555 0.024404 -0.206967 255 0 0
-0.912785 0.002003 -0.272115 255 0 0
-0.036126 -0.020558 0.379593 255 0 0
-0.190508 -0.003032 0.283455 0 127 127
-0.489481 -0.005025 0.355168 76 153 0
0.836282 -0.021333 0.203844 255 0 0
-0.123273 -0.025395 0.423035 255 0 0
0.326457 -0.015624 0.152566 255 0 0
-0.321627 -0.015274 0.332131 255 0 0
0.731250 -0.001586 -0.064915 255 0 0
-0.836462 0.020679 0.064869 204 51 127
0.685473 -0.037410 -0.285978 255 0 0
-0.904077 -0.039944 0.370994 255 0 0
-0.697000 -0.012405 0.306363 255 0 0
-0.378424 0.058238 -0.213040 127 127 0
-0.281510 0.013427 0.189443 127 127 0
0.746111 -0.020531 0.379352 255 0 0
0.514353 0.054386 -0.293542 255 0 0
0.619473 -0.010085 0.400614 255 0 0
0.293171 -0.051740 0.385568 255 0 0
-0.079834 -0.048258 -0.355048 255 0 0
-0.378670 0.013661 0.187337 127 127 0
-0.422019 0.023168 0.101948 153 76 0
0.608875 -0.017745 0.354323 255 0 0
0.545319 -0.022319 0.212697 255 0 0
0.241985 -0.037554 0.349535 255 0 0
-0.576487 0.021258 0.004008 255 0 0
0.657241 0.015099 0.059333 255 0 0
0.687909 0.021401 0.117819 0 0 255
-0.510817 0.005154 -0.377380 255 0 0
0.050446 0.025613 0.079987 0 127 127
-0.049625 0.010788 0.098050 255 0 0
-0.591308 0.000624 0.006624 255 0 0
0.589110 -0.035083 0.235956 255 0 0
-0.244750 -0.006622 0.254419 255 0 0
-0.591640 -0.012454 0.124091 255 0 0
0.062001 0.010208 -0.079452 255 0 0
-0.852402 0.017084 0.156599 204 51 127
0.392808 -0.008130 0.267966 255 0 0
-0.577086 -0.011161 0.021088 255 0 0
0.779694 0.023811 -0.201641 255 0 0
-0.282880 0.008701 -0.065922 255 0 0
0.568015 0.057273 -0.319468 255 0 0
0.258984 -0.007567 0.262913 255 0 0
0.230891 -0.030016 -0.366489 255 0 0
-0.893041 0.040359 -0.358744 255 0 0
-0.562937 -0.001372 0.207264 255 0 0
-0.750258 0.019942 0.130925 204 51 127
-0.151492 0.008382 0.207831 0 127 127
-0.422531 -0.035858 0.242913 255 0 0
0.567894 -0.015879 0.337566 255 0 0
-0.263826 0.026838 -0.046109 255 0 0
0.072860 0.057799 -0.209093 153 76 0
-0.770811 -0.032498 0.304120 255 0 0
0.492455 0.006931 -0.141414 255 0 0
0.070442 0.024538 -0.263993 255 0 0
0.747343 -0.030865 -0.288853 255 0 0
-0.336136 0.028686 -0.245428 255 0 0
0.768670 0.049095 -0.246020 255 0 0
-0.253297 -0.033688 0.314809 255 0 0
-0.268773 0.013642 -0.201684 255 0 0
0.510300 0.009896 0.122267 0 255 0
0.530400 -0.046613 0.430901 255 0 0
0.192587 -0.021584 0.206094 255 0 0
-0.226331 0.000910 0.186770 255 0 0
-0.781978 0.029358 -0.068746 255 0 0
0.589545 -0.002428 0.034036 255 0 0
-0.558776 0.038053 -0.292941 255 0 0
0.493560 0.010419 0.101366 255 0 0
0.241240 -0.005984 0.248693 255 0 0
-0.791209 0.009667 -0.074595 255 0 0
-0.250190 -0.040113 -0.298982 255 0 0
0.706094 -0.009279 0.393381 255 0 0
0.154815 0.001837 -0.095658 255 0 0
-0.672516 -0.049534 0.365755 255 0 0
-0.147358 -0.023177 0.220405 255 0 0
0.390793 0.020599 0.009923 255 0 0
0.259758 0.010712 0.098734 255 0 0
0.808017 -0.020124 0.375695 255 0 0
0.334768 -0.043390 0.310565 255 0 0
-0.050360 -0.033659 0.223161 255 0 0
0.313270 0.013589 0.072885 255 0 0
-0.871587 -0.021721 0.207330 255 0 0
-0.871402 -0.043530 -0.361545 255 0 0
-0.629104 0.016483 0.046902 255 0 0
-0.774243 -0.025621 0.425064 255 0 0
0.353805 0.040985 -0.173172 255 0 0
0.859363 0.021544 0.001443 255 0 0
0.049445 0.020535 0.125600 0 127 127
-0.806005 0.036434 -0.017207 0 0 255
0.303962 0.005582 0.259903 153 76 0
0.359491 0.023521 -0.265088 255 0 0
0.581058 -0.010287 0.104631 255 0 0
0.585471 0.014924 0.060906 255 0 0
-0.304093 -0.027279 -0.376485 255 0 0
0.541628 -0.054488 -0.335595 255 0 0
0.495795 0.007332 -0.053623 255 0 0
-0.016321 -0.019370 0.186209 255 0 0
0.837599 0.051580 -0.325428 255 0 0
0.605761 -0.004461 -0.039086 255 0 0
-0.464573 -0.045016 -0.346506 255 0 0
-0.171585 0.011397 -0.090133 255 0 0
0.006799 0.028202 -0.058364 255 0 0
0.730057 -0.025548 -0.277440 255 0 0
-0.347984 -0.054343 -0.336701 255 0 0
-0.497135 -0.036364 0.247457 255 0 0
0.391405 0.008177 -0.383300 255 0 0
-0.766325 -0.024212 -0.283747 255 0 0
-0.490236 -0.051474 -0.347284 255 0 0
0.623075 -0.014958 0.146578 255 0 0
-0.201035 -0.001724 -0.277197 255 0 0
0.033511 -0.006426 0.069945 255 0 0
0.107209 -0.002516 0.217546 255 0 0
0.783437 0.056944 -0.336505 255 0 0
0.791992 0.005112 -0.033688 255 0 0
-0.761450 0.020451 -0.171462 255 0 0
0.125948 0.047514 -0.116719 76 0 153
0.337540 -0.023992 -0.371112 255 0 0
0.841392 -0.033398 0.312208 255 0 0
-0.133858 0.005269 0.147615 255 0 0
-0.047213 -0.025994 0.428422 255 0 0
-0.614244 0.037836 -0.029803 255 0 0
0.625100 -0.004267 0.050555 255 0 0
0.686790 -0.007154 0.076484 255 0 0
0.430967 -0.004223 0.347970 127 127 0
-0.243813 -0.043720 0.441665 255 0 0
0.138049 0.038914 -0.154572 255 0 0
0.619333 0.049056 -0.130568 255 0 0
-0.420951 0.057474 -0.206178 0 127 127
-0.309752 0.018444 -0.153433 255 0 0
-0.356467 -0.026682 0.251881 255 0 0
0.289505 0.007389 -0.054138 255 0 0
0.386440 -0.046012 0.425508 255 0 0
-0.552728 -0.001739 0.027854 255 0 0
0.358667 0.020193 0.032948 153 76 0
-0.199578 -0.023921 0.409796 255 0 0
-0.033600 0.045519 -0.098808 153 0 76
0.127569 0.027755 -0.237066 255 0 0
0.552596 -0.043496 0.402908 255 0 0
-0.123302 -0.039874 0.278991 255 0 0
-0.679526 0.031259 0.029277 255 0 0
-0.360254 -0.007505 0.079641 255 0 0
0.708970 -0.015247 0.331894 255 0 0
-0.838237 -0.002463 0.217069 255 0 0
-0.801538 0.004627 -0.277241 255 0 0
-0.541515 -0.034369 0.442707 255 0 0
0.790219 0.028587 0.053278 255 0 0
0.794150 -0.025355 0.422676 255 0 0
-0.668278 0.006381 -0.136472 255 0 0
0.715469 0.048599 -0.126464 204 51 127
0.408169 -0.020577 0.105666 255 0 0
0.219500 -0.049643 0.366728 255 0 0
0.541810 0.058209 -0.212778 0 0 255
-0.328235 -0.011130 0.020816 255 0 0
0.732840 -0.018832 0.181379 255 0 0
-0.388972 -0.004733 0.237452 255 0 0
0.376661 -0.017124 0.166032 255 0 0
0.330242 -0.025762 0.243621 255 0 0
-0.469916 0.007486 -0.055010 255 0 0
0.686012 0.008556 -0.156002 255 0 0
-0.004912 -0.014902 0.328791 255 0 0
-0.784177 0.046938 -0.226640 255 0 0
0.728393 0.052737 -0.350452 255 0 0
0.584892 0.017571 0.152225 255 0 0
0.514741 0.034915 -0.118654 255 0 0
-0.573640 0.023128 0.102301 153 0 76
-0.150978 0.012916 -0.103782 255 0 0
0.619310 -0.009678 0.281869 255 0 0
-0.732802 0.012600 -0.100945 255 0 0
0.754804 0.034279 0.002150 255 0 0
0.723458 -0.029473 0.276957 255 0 0
0.145319 -0.004165 -0.277519 255 0 0
-0.472560 0.038778 -0.153353 255 0 0
0.125682 0.048753 -0.242944 255 0 0
-0.312496 0.014849 0.061574 255 0 0
-0.710850 0.022681 0.106326 204 51 127
-0.100086 -0.037314 -0.295335 255 0 0
-0.599567 -0.003674 0.227939 255 0 0
0.592212 0.007846 0.182953 204 51 127
-0.177266 -0.040738 0.286751 255 0 0
0.137721 0.008421 -0.063403 255 0 0
0.364898 0.053537 -0.285912 255 0 0
0.220160 -0.028654 0.178215 255 0 0
-0.225674 -0.000105 0.013171 255 0 0
0.770600 -0.026503 0.250279 255 0 0
0.352448 0.025698 -0.218585 255 0 0
-0.678710 0.009051 0.113653 255 0 0
0.736418 0.000979 0.003439 255 0 0
-0.194628 -0.019346 0.094611 255 0 0
0.170925 0.026316 -0.041423 255 0 0
0.762303 0.005933 -0.041062 255 0 0
-0.579382 -0.021998 0.209812 255 0 0
-0.852111 0.058297 -0.213568 153 0 76
-0.336997 0.052334 -0.160014 127 0 127
0.648608 -0.011763 0.415696 255 0 0
0.360089 -0.047927 0.420854 255 0 0
-0.334583 -0.003639 0.342720 0 127 127
-0.645435 0.007357 0.128866 255 0 0
0.482167 -0.021138 0.110702 255 0 0
-0.642986 0.013440 -0.199876 255 0 0
0.118870 0.054936 -0.183384 76 153 0
0.537840 -0.046490 -0.297004 255 0 0
0.033158 -0.005526 -0.376992 255 0 0
-0.490754 -0.014915 0.328913 255 0 0
0.176631 0.031840 -0.091034 255 0 0
0.089471 0.011335 0.093132 255 0 0
-0.867519 0.006922 0.247864 0 0 255
-0.778428 0.049633 -0.250849 255 0 0
0.328082 -0.021546 0.388467 255 0 0
-0.480311 0.042786 -0.355580 255 0 0
-0.504740 0.036168 -0.129907 255 0 0
0.375631 -0.012398 0.123588 255 0 0
-0.752042 0.038440 -0.150313 255 0 0
-0.443138 -0.042324 0.300996 255 0 0
-0.887932 0.024650 -0.026458 255 0 0
-0.078596 -0.043455 0.402538 255 0 0
0.841095 0.011488 -0.092685 255 0 0
-0.439090 0.003457 -0.018823 255 0 0
-0.631024 0.053353 -0.284258 255 0 0
0.301056 0.016619 -0.137040 255 0 0
0.756331 -0.036890 -0.359907 255 0 0
-0.256775 -0.001892 0.327030 0 127 127
0.156986 -0.043193 0.308798 255 0 0
0.148559 0.004916 -0.123309 255 0 0
0.719726 -0.044526 0.412157 255 0 0
0.408070 0.008405 0.165064 0 255 0
-0.412237 -0.050512 -0.305084 255 0 0
0.672013 -0.042920 0.441754 255 0 0
0.734373 0.021120 0.005254 255 0 0
-0.842889 0.055838 -0.191481 153 0 76
-0.118619 0.043860 -0.198993 255 0 0
0.432973 0.013841 0.185718 76 0 153
-0.283829 0.057347 -0.320134 255 0 0
-0.689481 -0.015465 0.333847 255 0 0
-0.501748 -0.000085 0.195709 255 0 0
-0.753907 -0.030317 0.193151 255 0 0
-0.010071 -0.047371 -0.356539 255 0 0
-0.529240 -0.028445 0.176333 255 0 0
0.502633 -0.007961 0.381544 0 255 0
-0.169129 0.016971 -0.231590 255 0 0
0.448485 0.034309 0.001882 76 0 153
0.421464 0.006188 0.254453 76 0 153
-0.183212 0.029133 -0.254072 255 0 0
-0.632760 -0.023160 0.128863 255 0 0
-0.184487 0.002947 0.168471 255 0 0
0.854967 0.000067 0.194345 255 0 0
0.090330 -0.019784 0.098540 255 0 0
-0.141919 0.014605 -0.210335 255 0 0
0.192958 0.035009 -0.004402 76 0 153
-0.676616 0.022502 -0.007166 255 0 0
0.418291 0.054672 -0.296107 255 0 0
-0.608688 0.019587 0.019021 255 0 0
-0.479157 0.060766 -0.235749 0 127 127
-0.062189 0.007406 0.128425 255 0 0
0.463593 0.028982 -0.065369 255 0 0
0.209294 -0.013235 0.393820 0 127 127
0.783821 -0.041960 0.389112 255 0 0
-0.432234 -0.007550 0.262753 255 0 0
0.847022 0.033120 -0.102537 255 0 0
0.249325 0.033322 -0.104345 255 0 0
-0.432952 0.038135 -0.032487 127 127 0
-0.503039 0.041137 -0.357730 255 0 0
-0.669623 0.024069 0.047447 255 0 0
-0.704555 0.016247 0.049015 255 0 0
-0.747769 0.024891 -0.263588 255 0 0
-0.707102 0.015527 -0.127227 255 0 0
-0.820994 -0.052818 0.395245 255 0 0
-0.126802 0.009602 0.223794 76 153 0
0.754073 0.030204 0.038757 255 0 0
0.233412 0.043169 -0.077699 153 0 76
0.260424 -0.027613 0.442957 255 0 0
-0.519896 0.018361 -0.244075 255 0 0
-0.573979 -0.046997 0.420958 255 0 0
-0.210286 0.050684 -0.260292 255 0 0
0.462474 -0.030948 -0.365774 255 0 0
-0.827871 0.033637 -0.107171 255 0 0
-0.904970 -0.006253 0.068395 255 0 0
-0.015023 -0.006339 0.266011 153 0 76
0.699209 0.032515 0.017995 204 51 127
0.602937 0.024036 -0.020946 255 0 0
-0.755401 -0.017267 0.075937 255 0 0
0.048869 -0.027970 0.263454 255 0 0
0.177834 -0.005077 0.355638 0 127 127
-0.630667 -0.017870 0.355448 255 0 0
0.303774 -0.021062 0.201409 255 0 0
-0.697435 0.001694 -0.094372 255 0 0
0.231870 -0.025192 0.147114 255 0 0
0.866367 0.003127 0.040790 255 0 0
0.076966 0.057736 -0.323629 255 0 0
-0.346742 0.001858 -0.004460 255 0 0
0.359793 -0.017449 0.077567 255 0 0
-0.462402 -0.008387 0.385366 76 153 0
-0.047346 -0.006767 -0.376829 255 0 0
0.611663 0.026752 -0.260976 255 0 0
0.640668 0.046322 -0.106021 255 0 0
-0.092337 0.048572 -0.241322 255 0 0
-0.388443 0.009135 0.112892 255 0 0
-0.065430 0.011937 0.087731 255 0 0
0.081730 0.005954 0.141461 255 0 0
0.639010 0.052864 -0.164773 255 0 0
-0.855351 -0.003106 0.040132 255 0 0
0.622173 0.047006 -0.360371 255 0 0
0.805457 -0.040206 -0.355587 255 0 0
0.721843 0.036448 -0.050430 204 51 127
-0.691538 0.033209 0.011758 255 0 0
-0.234856 0.055998 -0.192918 0 0 255
0.095113 -0.034223 0.319617 255 0 0
-0.513651 0.010963 -0.177629 255 0 0
0.140326 -0.004290 -0.040621 255 0 0
0.325270 0.016687 -0.229038 255 0 0
0.537426 0.051762 -0.326812 255 0 0
0.667458 0.052781 -0.279124 255 0 0
0.622324 -0.024594 0.415847 255 0 0
-0.388559 -0.033355 -0.290763 255 0 0
-0.169910 -0.000089 0.013027 255 0 0
0.297373 -0.024816 -0.377553 255 0 0
0.118314 -0.020536 0.105294 255 0 0
-0.392244 -0.020404 0.378208 255 0 0
0.826118 0.002546 -0.010636 255 0 0
-0.862929 0.049547 -0.134985 204 51 127
0.850663 0.012408 0.083496 255 0 0
0.219403 0.048522 -0.232554 76 153 0
0.818191 -0.019433 -0.373003 255 0 0
0.380388 -0.019571 0.096627 255 0 0
-0.167116 0.050198 -0.255927 255 0 0
-0.513688 -0.013924 0.320005 255 0 0
0.716684 0.017466 0.038071 255 0 0
-0.647709 0.012345 -0.098653 255 0 0
0.009982 0.018800 -0.248015 255 0 0
-0.304033 -0.042003 0.298109 255 0 0
-0.139556 -0.040695 -0.354950 255 0 0
-0.862030 0.025954 0.047657 0 0 255
0.505773 0.003103 -0.277040 255 0 0
0.721676 0.046176 -0.304767 255 0 0
-0.308831 -0.027273 0.257197 255 0 0
0.369726 -0.046768 -0.297365 255 0 0
-0.892474 0.011979 -0.376482 255 0 0
-0.740414 0.021882 -0.379836 255 0 0
0.057829 -0.011518 0.024296 255 0 0
0.580260 0.022140 -0.003916 255 0 0
-0.750401 -0.012629 0.125664 255 0 0
-0.786591 0.051579 -0.325421 255 0 0
0.609273 0.015083 -0.123241 255 0 0
0.450755 -0.054368 0.409175 255 0 0
-0.364780 0.054831 -0.297539 255 0 0
0.702975 -0.015192 0.057293 255 0 0
0.201120 0.011698 -0.184225 255 0 0
0.569647 0.001178 -0.089733 255 0 0
-0.866663 0.006985 -0.050510 255 0 0
-0.629990 0.044236 -0.202374 255 0 0
-0.172404 -0.046697 0.431657 255 0 0
-0.693946 0.049167 -0.246662 255 0 0
0.254259 0.014843 0.061628 255 0 0
0.396495 0.061656 -0.243735 0 255 0
0.434143 0.047843 -0.234773 255 0 0
0.447986 0.028240 -0.241419 255 0 0
-0.643196 0.042588 -0.072474 76 0 153
-0.488678 -0.030655 -0.288691 255 0 0
-0.450235 0.014742 -0.269921 255 0 0
0.053544 0.023285 -0.014194 255 0 0
-0.897453 0.004590 -0.028995 255 0 0
-0.344636 0.032507 0.018069 127 0 127
0.476778 -0.015925 0.063879 255 0 0
0.208303 0.016659 -0.137396 255 0 0
0.604883 0.031236 -0.085613 255 0 0
-0.721157 -0.040823 0.287511 255 0 0
0.795050 0.018602 0.142967 255 0 0
-0.620519 0.002685 -0.103275 255 0 0
-0.684343 -0.005332 -0.031267 255 0 0
-0.649402 -0.035681 0.332717 255 0 0
-0.084143 0.017789 -0.238934 255 0 0
-0.837590 0.007113 0.131058 255 0 0
0.851509 0.054128 -0.291222 255 0 0
-0.094175 0.000556 0.305043 0 127 127
-0.577242 0.012169 -0.097071 255 0 0
0.281099 -0.030965 0.290357 255 0 0
0.824787 0.010011 0.105030 255 0 0
-0.580017 0.058090 -0.211711 153 0 76
0.014967 0.019383 0.021126 153 0 76
-0.694336 0.043959 -0.354052 255 0 0
0.289698 0.058009 -0.326080 255 0 0
0.580916 -0.005543 -0.376990 255 0 0
0.780354 0.035093 -0.005157 255 0 0
-0.290967 -0.052034 -0.345932 255 0 0
-0.665143 0.017877 0.149475 153 0 76
-0.706952 0.016653 -0.228728 255 0 0
0.570038 -0.021759 0.116282 255 0 0
0.445370 -0.009738 0.008308 255 0 0
-0.540131 0.044817 -0.207595 255 0 0
-0.067736 0.011727 0.204705 76 153 0
0.727551 0.008994 -0.277815 255 0 0
-0.658512 0.029854 -0.073200 255 0 0
-0.387127 0.056983 -0.229478 127 127 0
-0.166220 -0.004400 0.051749 255 0 0
-0.385138 0.024777 0.087500 153 76 0
-0.511486 -0.031797 -0.281671 255 0 0
0.562041 0.030485 -0.078864 255 0 0
0.627519 -0.032980 0.308453 255 0 0
0.339886 0.033500 -0.105947 255 0 0
0.409458 0.033219 0.011675 76 0 153
-0.540733 0.008787 0.116020 255 0 0
-0.349835 0.023763 0.096608 153 76 0
-0.727293 -0.048412 -0.333755 255 0 0
-0.860308 0.045951 -0.102686 204 51 127
-0.553164 0.016130 -0.132647 255 0 0
0.237361 0.038591 -0.042361 76 0 153
-0.038817 -0.025761 0.152227 255 0 0
-0.577688 -0.049270 0.363386 255 0 0
0.644170 -0.027631 0.443119 255 0 0
-0.209499 -0.050824 -0.305838 255 0 0
-0.551831 0.037075 -0.022962 0 255 0
-0.873498 -0.040225 0.373528 255 0 0
-0.257731 -0.017004 0.164956 255 0 0
-0.057240 -0.004287 -0.040652 255 0 0
-0.836506 0.039909 -0.048417 0 0 255
0.215313 0.016026 -0.279209 255 0 0
0.862412 0.010603 0.099712 255 0 0
0.061176 0.014793 -0.120640 255 0 0
-0.337538 0.004925 -0.123395 255 0 0
0.377239 0.022544 0.107556 127 127 0
0.644387 0.005009 0.265048 204 51 127
0.242442 0.034208 -0.365249 255 0 0
0.529798 0.041773 -0.180252 255 0 0
0.638745 -0.016495 0.343097 255 0 0
-0.741725 0.055425 -0.343962 255 0 0
-0.698892 -0.028031 0.264005 255 0 0
0.531936 0.036599 -0.133784 255 0 0
-0.267255 0.036001 -0.290817 255 0 0
-0.423171 -0.037109 -0.295068 255 0 0
-0.790774 -0.047393 -0.298180 255 0 0
-0.096514 -0.020594 0.379914 255 0 0
0.596659 0.034939 -0.003778 153 0 76
0.597983 0.047207 -0.229058 255 0 0
0.721038 -0.040327 0.374439 255 0 0
0.407939 0.027436 -0.051479 255 0 0
-0.328308 -0.008034 -0.006992 255 0 0
0.670456 0.036039 -0.013659 204 51 127
-0.120180 0.026540 -0.371126 255 0 0
0.548442 -0.003420 0.042948 255 0 0
-0.770701 0.057279 -0.333959 255 0 0
0.308083 0.010238 -0.079730 255 0 0
-0.017329 0.034472 -0.114673 255 0 0
-0.363101 0.016145 -0.132781 255 0 0
-0.017723 -0.020044 0.100879 255 0 0
-0.545625 -0.054448 0.409890 255 0 0
-0.903914 0.002059 0.176453 255 0 0
0.690266 0.037453 -0.052775 204 51 127
0.436932 -0.030505 -0.280681 255 0 0
-0.866368 0.003927 0.274765 0 0 255
-0.341470 0.039480 -0.044568 127 0 127
0.543632 0.019676 -0.267982 255 0 0
0.112010 0.008409 0.119415 255 0 0
-0.141420 -0.019891 0.373598 255 0 0
-0.009990 -0.035807 0.242460 255 0 0
-0.549970 0.028555 -0.061529 255 0 0
-0.282062 -0.017321 0.167807 255 0 0
0.202151 0.029286 0.047003 76 0 153
0.565100 -0.032501 0.212764 255 0 0
0.388657 0.013455 -0.200005 255 0 0
0.560830 -0.032414 0.303374 255 0 0
0.248432 0.005866 -0.040453 255 0 0
-0.048027 0.007355 0.243975 76 153 0
0.566660 -0.035110 0.327584 255 0 0
-0.912785 0.051617 -0.330821 255 0 0
0.267720 -0.004813 0.238171 255 0 0
-0.353142 0.002885 0.169034 255 0 0
0.032839 -0.008839 0.389426 0 127 127
0.320210 0.061680 -0.243955 0 127 127
-0.441618 0.012690 0.080964 255 0 0
0.133970 0.039954 -0.048823 76 0 153
-0.066550 0.016523 0.046542 255 0 0
0.355818 -0.022454 0.213913 255 0 0
0.001251 0.007339 0.129022 255 0 0
-0.134918 -0.016462 0.068701 255 0 0
0.768457 -0.021813 0.208156 255 0 0
-0.317309 0.056654 -0.313911 255 0 0
-0.345960 0.047107 -0.228158 255 0 0
0.317675 -0.036190 0.337282 255 0 0
0.074312 -0.043793 0.405571 255 0 0
-0.090807 0.013302 0.075469 255 0 0
0.577289 0.015333 -0.125488 255 0 0
0.738290 0.011437 -0.090500 255 0 0
-0.482887 0.031016 0.031463 0 255 0
-0.229475 -0.019769 0.098408 255 0 0
-0.273031 0.016012 -0.222970 255 0 0
-0.500827 0.006979 0.132264 255 0 0
-0.619034 0.006102 -0.042575 255 0 0
-0.567543 -0.019759 0.189705 255 0 0
-0.736414 0.057533 -0.206711 76 0 153
-0.579634 0.027848 -0.237901 255 0 0
-0.631759 0.024762 -0.027462 255 0 0
0.022498 0.013893 -0.112551 255 0 0
-0.902902 0.002094 -0.006575 255 0 0
