ply
format ascii 1.0
element vertex 1301
property float x
property float y
property float z
property uchar red
property uchar green
property uchar blue
end_header
-0.751808 -0.008997 0.275756 255 0 0
-0.036500 0.050809 -0.319577 255 0 0
0.687618 0.026047 -0.283360 255 0 0
0.428606 -0.055202 0.416659 255 0 0
0.068014 0.013863 0.185519 153 0 76
0.183240 0.028174 -0.257857 255 0 0
0.426800 0.037930 -0.052722 76 0 153
-0.453163 -0.022765 0.125314 255 0 0
0.393732 -0.000863 0.317793 127 127 0
0.294358 0.031378 0.028211 153 76 0
-0.662175 0.020938 0.121974 153 0 76
-0.065348 0.047787 -0.119178 204 51 127
0.284647 0.049752 -0.136820 153 0 76
-0.563680 0.004222 0.272120 0 255 0
-0.220262 0.036860 -0.068098 0 255 0
-0.395152 -0.008199 0.268589 255 0 0
0.135330 0.053071 -0.281731 255 0 0
0.356863 0.046485 -0.107477 255 0 0
-0.532059 0.054817 -0.297409 255 0 0
-0.576390 -0.051903 0.420412 255 0 0
0.268366 -0.022191 0.120159 255 0 0
0.740492 0.017431 0.153473 0 0 255
0.190967 -0.053436 0.400793 255 0 0
0.157193 -0.040627 -0.365327 255 0 0
-0.271558 -0.001307 0.321775 255 0 0
0.633408 -0.037592 0.258492 255 0 0
0.304082 -0.028166 -0.375804 255 0 0
-0.725454 0.011158 0.165522 255 0 0
0.008442 -0.016948 0.073073 255 0 0
0.033192 -0.027658 0.169262 255 0 0
-0.076209 -0.054718 0.412309 255 0 0
-0.450039 0.015321 0.160606 76 0 153
-0.068602 -0.040168 0.281622 255 0 0
-0.600226 0.019679 0.064758 255 0 0
-0.568128 -0.030611 0.195789 255 0 0
0.474045 -0.052630 0.393554 255 0 0
0.660852 0.007921 0.238895 204 51 127
0.805965 -0.053834 0.404368 255 0 0
-0.824380 -0.006663 -0.019311 255 0 0
-0.551899 0.003035 -0.106410 255 0 0
0.345431 0.012256 -0.189235 255 0 0
-0.789010 0.045567 -0.362246 255 0 0
0.470634 -0.000638 0.315766 127 127 0
0.655300 0.023169 0.101941 255 0 0
0.226624 -0.011509 0.413408 127 0 127
-0.912785 0.033919 -0.293232 255 0 0
0.658329 0.057789 -0.209007 153 0 76
0.518425 0.015990 -0.222773 255 0 0
-0.128030 -0.025587 0.150666 255 0 0
0.547738 0.015064 0.165957 255 0 0
-0.631264 0.061971 -0.246572 153 0 76
0.629235 -0.046434 -0.296930 255 0 0
0.553653 -0.018022 0.356810 0 255 0
0.012091 0.047505 -0.116645 153 0 76
-0.863965 -0.022882 0.126366 255 0 0
0.616390 0.009036 0.228882 204 51 127
-0.349139 -0.053016 0.397025 255 0 0
-0.155527 -0.050145 0.371234 255 0 0
0.465298 0.006271 0.186699 153 0 76
-0.427562 0.052369 -0.162551 76 153 0
-0.454126 0.057738 -0.208556 0 127 127
0.080672 -0.019693 0.097720 255 0 0
0.473159 -0.007901 -0.008189 255 0 0
-0.631667 0.020561 -0.380382 255 0 0
0.543645 0.053969 -0.289790 255 0 0
0.098900 0.016680 -0.228975 255 0 0
-0.333450 -0.006775 0.370890 0 127 127
0.156529 -0.017854 0.355303 255 0 0
-0.455256 -0.054729 -0.320921 255 0 0
-0.449539 0.034778 -0.068330 255 0 0
0.309871 -0.008672 0.387924 127 0 127
0.692365 -0.006785 -0.018210 255 0 0
-0.149050 0.037941 -0.030743 0 127 127
0.649693 0.031796 -0.053405 255 0 0
-0.361820 -0.010909 0.408020 255 0 0
0.350345 0.051499 -0.267613 255 0 0
-0.732572 -0.020666 0.106466 255 0 0
-0.469967 -0.008086 -0.006530 255 0 0
0.841095 -0.019130 0.124359 255 0 0
0.205116 0.054502 -0.183104 255 0 0
-0.310417 -0.013269 0.040026 255 0 0
-0.716111 -0.031506 0.203824 255 0 0
-0.112292 -0.000725 0.316547 0 127 127
-0.629736 0.003763 -0.112950 255 0 0
0.698645 -0.006792 0.371039 255 0 0
-0.176748 -0.017337 0.076565 255 0 0
0.405701 0.004646 0.268305 76 0 153
0.601582 -0.031511 0.295258 255 0 0
0.700434 0.052833 -0.350221 255 0 0
0.617597 -0.027395 0.166899 255 0 0
-0.264069 -0.046603 -0.297151 255 0 0
-0.110454 -0.010245 0.402060 0 127 127
-0.245599 0.013588 -0.201199 255 0 0
0.570146 0.005341 0.262064 153 0 76
-0.513488 0.007769 0.240260 0 255 0
0.767529 -0.042731 -0.352023 255 0 0
-0.033318 0.055822 -0.198588 76 0 153
0.472264 0.012685 -0.270323 255 0 0
-0.740083 0.008052 -0.151477 255 0 0
-0.174235 0.031955 0.023022 255 0 0
-0.315297 0.023491 0.099049 76 0 153
-0.491850 -0.038405 0.265787 255 0 0
0.287217 0.039803 -0.047459 255 0 0
0.615081 -0.005695 -0.376970 255 0 0
0.707073 -0.030427 0.194132 255 0 0
-0.501565 -0.050984 -0.348466 255 0 0
0.212525 0.031557 0.026600 76 0 153
0.323403 0.001382 -0.091569 255 0 0
-0.513400 0.031232 0.029524 0 255 0
0.104780 0.004474 -0.277220 255 0 0
0.370331 0.055913 -0.307258 255 0 0
-0.782604 0.037385 -0.025746 255 0 0
0.743912 -0.010732 0.406433 0 0 255
0.657662 -0.048841 0.359523 255 0 0
-0.417431 -0.040916 0.288341 255 0 0
-0.104102 0.038941 -0.039721 76 153 0
-0.392812 0.011974 0.202491 127 0 127
0.776634 -0.034625 0.231839 255 0 0
-0.216115 0.055504 -0.343773 255 0 0
-0.160394 -0.044128 0.441620 255 0 0
-0.300068 0.060253 -0.231138 255 0 0
-0.887513 0.018403 0.087690 204 51 127
0.014979 -0.043434 -0.361670 255 0 0
-0.165372 -0.035825 0.242617 255 0 0
-0.214226 -0.048897 -0.353505 255 0 0
-0.349485 -0.017873 0.081378 255 0 0
-0.095099 0.004196 -0.116841 255 0 0
0.085977 -0.012337 0.031656 255 0 0
-0.007256 0.019511 0.134790 76 153 0
-0.287121 0.012778 0.195266 127 127 0
-0.307548 -0.055384 0.418292 255 0 0
-0.402339 -0.043818 0.441654 255 0 0
-0.837778 0.019016 0.064684 204 51 127
0.073613 -0.011988 -0.376086 255 0 0
-0.613035 0.010962 0.211576 0 255 0
0.564032 0.005206 -0.125910 255 0 0
0.382289 -0.039613 0.276638 255 0 0
0.442259 0.047881 -0.120016 127 127 0
-0.841923 0.002921 0.283802 255 0 0
-0.871591 -0.017835 -0.274245 255 0 0
0.704875 0.002923 -0.105408 255 0 0
0.159303 -0.015401 0.059176 255 0 0
-0.868866 -0.033454 0.221320 255 0 0
-0.689520 0.011331 -0.180931 255 0 0
0.638432 0.010406 -0.172618 255 0 0
0.816840 0.017440 -0.235799 255 0 0
-0.477464 0.021340 -0.252170 255 0 0
0.221574 -0.050519 -0.349590 255 0 0
0.058747 0.003821 -0.113473 255 0 0
-0.427110 -0.005547 -0.029335 255 0 0
-0.299076 -0.045906 0.333164 255 0 0
0.032372 -0.046735 0.340612 255 0 0
0.630508 -0.020473 0.104730 255 0 0
0.866367 -0.008348 -0.340866 255 0 0
0.416532 -0.054697 -0.334013 255 0 0
-0.209942 -0.016933 -0.280652 255 0 0
-0.599041 -0.008390 0.385394 153 0 76
-0.243588 0.018040 0.148011 255 0 0
-0.276695 0.052595 -0.162355 0 255 0
0.265285 -0.028116 0.443403 255 0 0
-0.510271 0.044075 -0.085832 76 153 0
-0.527904 -0.012406 0.123655 255 0 0
-0.724924 0.043292 -0.078802 153 76 0
0.711613 -0.016985 0.073400 255 0 0
0.187536 -0.040158 0.281538 255 0 0
0.321203 -0.046649 -0.297210 255 0 0
-0.036905 -0.019128 0.092647 255 0 0
0.477999 0.008480 0.233870 255 0 0
0.254904 0.004983 0.265280 153 76 0
-0.766191 -0.021755 0.207628 255 0 0
0.189815 0.039953 -0.048814 76 0 153
-0.887513 0.008435 -0.137476 255 0 0
0.606683 0.050997 -0.148009 255 0 0
-0.793954 -0.054768 0.412758 255 0 0
-0.133470 -0.028419 -0.375610 255 0 0
-0.504589 -0.014654 -0.272928 255 0 0
-0.252720 0.028498 -0.243728 255 0 0
0.245364 0.006821 -0.140421 255 0 0
-0.100117 0.029475 0.045304 76 153 0
0.697634 0.036118 -0.052924 204 51 127
-0.153532 0.018898 0.140302 153 0 76
0.240555 -0.006751 -0.018517 255 0 0
-0.817023 0.019139 0.138133 204 51 127
0.568623 -0.047981 -0.337030 255 0 0
0.469271 -0.013009 0.037686 255 0 0
0.475710 0.046078 -0.304531 255 0 0
0.667705 0.002961 0.283440 204 51 127
0.028179 -0.011239 0.410982 0 127 127
0.625071 -0.011474 0.413096 255 0 0
0.229926 -0.040989 0.380390 255 0 0
0.561537 0.008425 -0.383267 255 0 0
0.567430 -0.030998 0.199261 255 0 0
0.117476 0.024790 -0.378631 255 0 0
0.691752 -0.053835 0.420197 255 0 0
-0.764081 0.000201 -0.080964 255 0 0
-0.441860 0.053801 -0.249295 255 0 0
-0.735057 -0.010913 0.408056 76 0 153
0.809542 -0.018634 0.362307 255 0 0
0.828488 0.021775 -0.379879 255 0 0
0.778557 -0.047380 0.437786 255 0 0
0.277486 -0.043243 0.400628 255 0 0
0.495513 0.039972 -0.049222 153 0 76
-0.294342 -0.034852 0.233880 255 0 0
-0.617255 -0.054318 0.408718 255 0 0
0.231775 -0.012247 0.030848 255 0 0
0.285406 0.016356 0.163130 255 0 0
0.159296 0.019074 -0.159088 255 0 0
0.003755 -0.010592 0.015979 255 0 0
-0.352185 0.046656 -0.109012 127 0 127
0.032854 0.036351 -0.371500 255 0 0
0.351867 -0.034618 -0.370853 255 0 0
-0.801270 0.021113 -0.267044 255 0 0
0.791398 -0.014267 0.048986 255 0 0
-0.486575 -0.038045 0.353947 255 0 0
-0.184548 0.004779 -0.122081 255 0 0
-0.011332 0.021909 -0.184547 255 0 0
-0.332228 0.026247 -0.223512 255 0 0
0.560246 -0.011715 0.300161 255 0 0
0.417803 0.039017 -0.155495 127 0 127
-0.829421 0.057122 -0.203017 153 0 76
-0.622013 -0.038420 0.357307 255 0 0
-0.170496 -0.031184 0.200930 255 0 0
-0.457334 0.001570 -0.093259 255 0 0
0.307333 0.008912 -0.159199 255 0 0
0.402415 0.050546 -0.259045 255 0 0
-0.560102 0.021896 -0.281641 255 0 0
-0.150357 0.009660 -0.165921 255 0 0
-0.247474 0.030098 -0.286288 255 0 0
0.531815 0.052798 -0.164179 255 0 0
-0.677369 -0.004990 -0.034337 255 0 0
0.480683 0.014350 -0.116661 255 0 0
-0.347111 -0.016999 -0.374011 255 0 0
0.059940 0.026458 0.072394 0 127 127
-0.609506 -0.016274 0.158401 255 0 0
0.068887 -0.003823 0.344372 0 127 127
0.359140 0.026726 0.069992 127 127 0
0.818579 0.022051 0.111984 255 0 0
-0.912785 -0.000461 0.174093 255 0 0
-0.661431 0.004065 0.273528 255 0 0
0.780384 -0.021212 0.111364 255 0 0
-0.219587 -0.028314 0.175154 255 0 0
0.254110 0.001593 -0.093460 255 0 0
0.541441 -0.029764 -0.280112 255 0 0
0.218113 0.030961 -0.286949 255 0 0
-0.005842 0.000519 0.305373 0 127 127
0.449993 0.025243 0.083312 0 255 0
0.200759 0.024279 0.091972 127 0 127
0.634799 0.037816 -0.292632 255 0 0
-0.267756 -0.020686 0.106643 255 0 0
-0.532112 0.017064 0.156776 255 0 0
0.822026 0.012299 0.199573 204 51 127
0.047955 0.051748 -0.154755 153 0 76
-0.460505 -0.031930 0.299018 255 0 0
-0.742855 0.054957 -0.183572 76 0 153
-0.377018 -0.007415 0.313890 255 0 0
-0.634169 0.026461 -0.042723 255 0 0
-0.741483 0.016444 -0.279382 255 0 0
0.484431 0.052075 -0.352051 255 0 0
-0.213028 0.027552 0.047835 0 127 127
-0.027485 0.049854 -0.137741 153 0 76
-0.385961 0.050492 -0.258562 127 127 0
-0.912785 -0.025461 0.338568 255 0 0
0.499283 -0.006181 0.067751 255 0 0
0.093809 0.053310 -0.283872 255 0 0
-0.235163 -0.040756 0.286904 255 0 0
-0.541240 0.059620 -0.248648 153 0 76
0.835083 -0.035007 0.235270 255 0 0
-0.274961 -0.003239 -0.050064 255 0 0
0.743576 -0.026551 -0.277856 255 0 0
-0.811253 0.035994 -0.128342 255 0 0
-0.739542 -0.033382 -0.282888 255 0 0
0.376089 -0.013964 0.395570 127 127 0
0.864453 -0.030901 0.289777 255 0 0
-0.625954 -0.018284 0.085068 255 0 0
0.549801 -0.005850 -0.026612 255 0 0
0.333401 -0.004910 0.239047 153 76 0
-0.178230 -0.008232 -0.382954 255 0 0
-0.622114 0.038367 -0.293350 255 0 0
-0.677535 -0.012318 0.419733 76 0 153
-0.229664 0.051567 -0.153124 0 255 0
0.040482 -0.002763 0.219759 255 0 0
0.740788 0.000601 0.283860 204 51 127
-0.236115 -0.008589 -0.002007 255 0 0
-0.135882 0.026755 0.069727 153 0 76
0.165044 0.000121 -0.080239 255 0 0
0.435578 0.012095 -0.187790 255 0 0
-0.288949 0.026996 0.067562 76 0 153
0.504971 -0.049876 0.420638 255 0 0
0.159300 -0.007308 -0.013516 255 0 0
0.726163 0.007227 -0.144065 255 0 0
-0.337642 0.053828 -0.288523 255 0 0
0.254149 -0.031811 0.206563 255 0 0
0.670154 0.033348 -0.104578 204 51 127
-0.444757 0.055631 -0.304718 255 0 0
-0.797429 -0.028261 0.174678 255 0 0
-0.875425 0.049555 -0.250144 255 0 0
0.072023 0.031031 -0.053490 255 0 0
0.373897 -0.048127 -0.335924 255 0 0
-0.601240 0.034231 -0.112510 255 0 0
0.378792 0.018267 0.145968 127 127 0
-0.485740 0.050253 -0.339340 255 0 0
0.182078 -0.026820 -0.285748 255 0 0
0.121081 0.044078 -0.200959 255 0 0
0.606148 -0.002555 0.035180 255 0 0
-0.494668 0.044065 -0.200841 255 0 0
-0.066623 0.027937 -0.238696 255 0 0
-0.215666 -0.049748 0.367670 255 0 0
-0.846031 -0.018323 0.359518 255 0 0
-0.758347 0.046595 -0.108471 153 76 0
-0.561387 -0.012577 0.033808 255 0 0
0.057714 0.015700 -0.220169 255 0 0
-0.441853 -0.017460 0.077668 255 0 0
0.324658 0.058245 -0.213101 0 127 127
0.700535 0.055536 -0.188770 153 0 76
0.559794 0.011329 -0.180905 255 0 0
0.125977 -0.047334 0.441263 255 0 0
-0.710520 -0.053232 0.398968 255 0 0
0.769879 0.018917 -0.249063 255 0 0
0.840069 -0.027083 0.164102 255 0 0
0.393240 -0.011377 0.023027 255 0 0
-0.178500 0.005669 -0.038690 255 0 0
-0.796209 -0.041111 0.290093 255 0 0
-0.693988 -0.050061 -0.350695 255 0 0
0.703003 -0.011310 -0.278459 255 0 0
-0.348852 -0.010423 -0.278343 255 0 0
0.116580 -0.029951 0.189857 255 0 0
0.486898 -0.023041 0.127792 255 0 0
-0.519418 -0.009279 0.393379 76 153 0
-0.159491 0.047208 -0.113973 204 51 127
-0.548373 -0.052355 0.391091 255 0 0
-0.882118 0.052950 -0.165549 204 51 127
-0.667392 -0.005169 0.356461 76 0 153
-0.144268 0.000358 -0.082368 255 0 0
0.452060 -0.048857 0.359665 255 0 0
0.785799 0.057803 -0.209135 76 0 153
-0.729498 -0.011981 0.028453 255 0 0
0.866367 0.025142 -0.274039 255 0 0
-0.329491 -0.032567 0.304737 255 0 0
-0.850985 0.056192 -0.309760 255 0 0
0.399781 -0.046134 0.335214 255 0 0
0.514674 -0.015665 0.335643 255 0 0
-0.664757 -0.009294 0.095706 255 0 0
0.681596 -0.042235 -0.363232 255 0 0
-0.879955 -0.012941 0.037081 255 0 0
0.153431 0.050769 -0.335417 255 0 0
-0.136751 0.006872 -0.277536 255 0 0
-0.121079 0.045324 -0.351981 255 0 0
-0.130780 0.008955 0.229610 76 153 0
0.828831 0.037434 -0.026188 255 0 0
0.432938 0.024384 -0.251831 255 0 0
-0.024421 0.002666 -0.103100 255 0 0
0.679688 0.020967 -0.176087 255 0 0
-0.785665 -0.011942 0.417298 153 76 0
-0.686727 0.023146 -0.282159 255 0 0
0.132334 0.030883 0.032654 76 0 153
-0.874528 -0.043980 -0.305684 255 0 0
-0.281262 0.002983 0.283249 127 127 0
-0.137218 0.048881 -0.244090 255 0 0
-0.659981 -0.032196 0.210026 255 0 0
-0.407877 0.023704 -0.200676 255 0 0
0.036097 0.044036 -0.200581 255 0 0
0.083469 -0.007048 -0.015849 255 0 0
0.626139 0.014692 -0.119726 255 0 0
-0.686790 -0.010885 0.018609 255 0 0
0.020047 -0.042336 0.301100 255 0 0
-0.231935 -0.055521 0.419528 255 0 0
-0.887513 -0.042547 0.313043 255 0 0
-0.464733 0.038003 -0.031300 127 127 0
0.757128 0.012409 -0.382743 255 0 0
0.138521 0.023398 0.099882 0 127 127
0.526592 0.031035 0.031287 153 0 76
0.168472 0.005202 0.263319 76 0 153
0.596169 0.037531 -0.027060 255 0 0
-0.030448 -0.032779 0.215260 255 0 0
-0.764944 0.013442 0.189301 0 0 255
0.323553 -0.006744 -0.018578 255 0 0
0.296177 0.022813 0.105141 127 127 0
0.866367 -0.022027 0.366925 255 0 0
-0.616702 -0.054952 -0.332074 255 0 0
0.624146 0.060321 -0.231748 153 0 76
0.717463 0.051308 -0.265893 255 0 0
-0.883388 0.004142 0.272837 255 0 0
-0.212481 0.020355 0.088156 76 0 153
-0.599485 0.052417 -0.351225 255 0 0
0.113192 0.012898 0.183516 76 0 153
-0.023306 -0.011651 -0.382504 255 0 0
0.783653 0.001126 -0.089271 255 0 0
-0.845881 0.011855 0.203558 0 0 255
0.663982 0.016793 0.159204 0 0 255
-0.908158 -0.003297 -0.271086 255 0 0
0.436384 0.032255 0.020333 76 0 153
-0.068339 0.000143 0.010948 255 0 0
0.159585 -0.023334 0.404520 255 0 0
0.019425 0.027230 -0.260032 255 0 0
-0.425474 0.031593 0.026278 127 127 0
-0.049067 -0.023879 0.135326 255 0 0
-0.243542 0.036115 -0.014339 127 0 127
-0.365683 0.027040 -0.047923 127 127 0
-0.593765 -0.011865 0.301511 255 0 0
-0.771508 0.011682 -0.184079 255 0 0
0.354483 -0.001169 0.320540 127 0 127
-0.180780 -0.048468 -0.321354 255 0 0
-0.342373 -0.032146 0.209575 255 0 0
0.326674 -0.016060 0.065095 255 0 0
-0.345207 0.020491 -0.171819 255 0 0
0.595940 -0.017976 0.356405 255 0 0
-0.129871 -0.037675 0.259238 255 0 0
0.382817 -0.018648 -0.274582 255 0 0
-0.110859 0.053001 -0.166007 204 51 127
0.440397 -0.012408 0.123681 255 0 0
-0.319280 0.001148 0.001920 255 0 0
0.282857 0.026254 -0.223576 255 0 0
-0.174926 0.047327 -0.307546 255 0 0
-0.683153 -0.043579 -0.304715 255 0 0
-0.608935 -0.011268 -0.382554 255 0 0
-0.065106 0.013851 0.185632 76 153 0
-0.658441 -0.031002 0.290682 255 0 0
-0.515002 0.052855 -0.168030 76 153 0
-0.010859 0.021759 -0.000492 76 153 0
-0.280938 -0.017002 0.164937 255 0 0
0.734545 0.034824 -0.068325 255 0 0
0.388522 0.055253 -0.186230 0 255 0
-0.871296 -0.007209 -0.376771 255 0 0
0.071679 -0.016447 0.159955 255 0 0
0.044470 0.036528 -0.291221 255 0 0
-0.415216 -0.010370 0.105371 255 0 0
0.654504 -0.005450 -0.030208 255 0 0
-0.131534 -0.046733 0.340591 255 0 0
-0.910343 0.044216 -0.202198 255 0 0
0.337953 -0.023484 0.131773 255 0 0
0.129159 0.000088 0.309249 0 127 127
0.595840 0.018382 -0.244254 255 0 0
0.191813 0.003537 0.163177 127 0 127
0.041237 -0.020589 0.105770 255 0 0
0.318860 0.035580 -0.124629 255 0 0
-0.035996 -0.032247 0.301871 255 0 0
-0.538198 -0.028767 0.270606 255 0 0
-0.011154 -0.039443 0.366499 255 0 0
-0.866792 0.036013 -0.013422 0 0 255
-0.612534 0.028086 -0.240029 255 0 0
0.496551 0.024004 0.094443 0 255 0
0.726020 0.015761 0.053378 255 0 0
0.515052 0.012212 -0.278239 255 0 0
0.019143 -0.005546 -0.029340 255 0 0
-0.527167 0.025605 0.065418 76 0 153
0.409658 0.045804 -0.303869 255 0 0
-0.046758 -0.047279 0.436885 255 0 0
-0.279831 0.035719 -0.125877 255 0 0
-0.503830 -0.005036 -0.033920 255 0 0
-0.708381 0.009487 -0.376810 255 0 0
0.787445 0.012258 0.084846 255 0 0
0.292080 0.055918 -0.192201 0 127 127
0.299677 0.011070 -0.382919 255 0 0
-0.771026 -0.048020 0.352154 255 0 0
-0.106635 -0.035975 -0.293589 255 0 0
-0.567527 -0.050120 -0.304138 255 0 0
-0.299663 0.029099 -0.066420 255 0 0
-0.390620 0.021083 0.120677 255 0 0
0.228697 -0.028334 0.175336 255 0 0
0.182368 -0.049071 0.361589 255 0 0
-0.587976 0.037509 -0.068026 76 0 153
-0.673660 0.061839 -0.245387 76 0 153
-0.021277 -0.055418 -0.326159 255 0 0
-0.690898 0.017862 0.149606 204 51 127
-0.637156 -0.005045 0.240258 255 0 0
0.661664 -0.027607 0.442902 255 0 0
0.358543 0.018887 -0.248793 255 0 0
0.694264 -0.003150 0.223232 204 51 127
0.212642 -0.036767 0.442440 255 0 0
-0.846613 0.008229 -0.153064 255 0 0
-0.808810 -0.053942 -0.339745 255 0 0
0.432400 -0.027638 0.443184 255 0 0
0.339930 0.039868 -0.048050 153 76 0
0.749180 0.046393 -0.106657 204 51 127
-0.726930 0.056536 -0.339604 255 0 0
-0.702868 0.035009 -0.004402 255 0 0
-0.109129 -0.017554 0.078511 255 0 0
0.219016 0.057644 -0.322804 255 0 0
-0.675651 0.002843 -0.104694 255 0 0
-0.491261 -0.016946 -0.380813 255 0 0
-0.910905 0.019311 0.021500 255 0 0
-0.805380 0.052328 -0.168089 255 0 0
0.286694 0.050845 -0.319851 255 0 0
0.094085 0.007127 0.130930 0 127 127
-0.194887 -0.022811 0.125726 255 0 0
0.070679 0.061022 -0.238049 153 76 0
-0.495361 0.022717 -0.009098 255 0 0
0.778094 0.003749 0.276368 204 51 127
0.845765 0.055244 -0.301248 255 0 0
0.790331 0.047009 -0.112188 204 51 127
0.316018 -0.045254 0.327306 255 0 0
-0.315856 0.006136 -0.134267 255 0 0
-0.247586 -0.048451 -0.333466 255 0 0
-0.387729 0.036038 -0.013643 127 127 0
0.789976 0.045044 -0.168900 255 0 0
0.452295 0.047622 -0.183870 0 255 0
0.837414 -0.013082 0.038345 255 0 0
0.748935 0.011979 0.202443 204 51 127
0.358667 0.027901 -0.011834 76 0 153
0.501068 -0.047550 -0.356306 255 0 0
0.425926 0.002590 0.171684 0 255 0
-0.451385 0.020762 -0.174252 255 0 0
-0.513196 -0.031147 0.200600 255 0 0
0.660236 -0.015912 0.337864 255 0 0
-0.623473 -0.037428 0.257016 255 0 0
-0.800135 0.023146 0.102143 204 51 127
0.255174 0.049771 -0.341245 255 0 0
0.571141 0.025675 0.079429 255 0 0
0.106813 -0.044039 -0.293809 255 0 0
0.182380 0.004510 -0.119667 255 0 0
0.802674 0.032946 -0.053277 255 0 0
-0.433815 0.014728 -0.120056 255 0 0
0.587637 -0.054630 0.411522 255 0 0
0.586705 0.018054 0.147882 255 0 0
0.146212 0.045095 -0.094993 76 0 153
-0.136562 0.000953 0.186383 255 0 0
0.358765 -0.048247 0.354194 255 0 0
-0.823384 -0.023646 0.407330 255 0 0
0.282492 0.031438 -0.087430 255 0 0
-0.028367 0.052886 -0.280069 255 0 0
0.858649 0.056836 -0.337327 255 0 0
-0.578566 -0.036263 0.337938 255 0 0
-0.092991 0.015107 -0.214843 255 0 0
0.446464 -0.039056 0.271641 255 0 0
-0.781371 -0.005086 0.338802 255 0 0
-0.404818 0.025313 -0.283056 255 0 0
0.127657 -0.046848 0.341624 255 0 0
-0.771267 0.020811 0.008022 255 0 0
0.242927 -0.009116 0.094108 255 0 0
-0.434607 -0.020621 0.197447 255 0 0
0.325149 -0.044027 0.407670 255 0 0
-0.563955 -0.011154 -0.376251 255 0 0
0.841095 0.009871 -0.139078 255 0 0
-0.775985 0.039137 -0.294354 255 0 0
0.162471 -0.003683 -0.383553 255 0 0
-0.067633 0.009723 -0.166487 255 0 0
-0.729022 -0.040851 0.287757 255 0 0
-0.612562 -0.006339 -0.022219 255 0 0
0.197849 0.019701 -0.380739 255 0 0
0.082972 0.010390 -0.172476 255 0 0
-0.749548 -0.054024 -0.339118 255 0 0
-0.091064 -0.032140 0.209516 255 0 0
-0.138542 0.057630 -0.207584 76 0 153
0.212688 -0.013097 0.312577 0 127 127
-0.487846 0.010345 -0.172074 255 0 0
-0.886776 0.018639 0.142628 204 51 127
0.108050 -0.008489 0.386287 255 0 0
0.222534 0.008272 0.201704 153 76 0
-0.178466 0.013704 -0.202240 255 0 0
-0.187082 0.050917 -0.262377 255 0 0
-0.500864 0.023393 0.099930 255 0 0
-0.561712 0.028050 -0.239712 255 0 0
-0.181512 0.015871 0.166047 153 0 76
-0.314958 -0.041217 -0.364559 255 0 0
-0.583642 0.059428 -0.223731 153 0 76
0.000269 0.058666 -0.216883 153 76 0
-0.329356 0.012240 -0.097706 255 0 0
0.320851 -0.031712 0.205676 255 0 0
0.234703 0.021266 -0.178773 255 0 0
-0.220157 0.006676 -0.139119 255 0 0
0.168844 0.050080 -0.139769 76 0 153
0.227454 -0.002888 -0.053213 255 0 0
-0.093629 0.024081 -0.378924 255 0 0
-0.065367 0.034175 -0.053140 255 0 0
0.766175 -0.048746 0.358671 255 0 0
0.532060 -0.027680 0.260851 255 0 0
-0.810279 -0.024146 -0.370994 255 0 0
0.743953 -0.048804 -0.323905 255 0 0
-0.497355 -0.014914 0.054803 255 0 0
-0.788231 -0.015718 0.062020 255 0 0
0.001609 0.032905 -0.068539 255 0 0
0.619960 -0.008955 0.001277 255 0 0
-0.156678 0.023257 0.101152 153 0 76
-0.425877 -0.014797 -0.279767 255 0 0
-0.210741 0.021618 -0.266705 255 0 0
-0.374504 -0.049841 0.368505 255 0 0
0.098158 -0.031121 0.291755 255 0 0
0.690033 0.025786 0.078432 0 0 255
0.622637 0.056019 -0.193114 153 0 76
0.706547 -0.011082 0.111769 255 0 0
0.298773 -0.014654 0.143847 255 0 0
0.866367 0.021287 -0.051161 255 0 0
0.197420 -0.025787 0.243847 255 0 0
0.653087 0.015103 -0.269849 255 0 0
-0.881514 -0.053258 0.399195 255 0 0
0.096533 -0.040796 -0.354818 255 0 0
-0.843871 -0.019048 0.183312 255 0 0
-0.466447 0.011330 0.093181 255 0 0
-0.090518 -0.025191 0.147106 255 0 0
0.470833 0.050637 -0.144776 127 127 0
0.838102 -0.045911 0.333211 255 0 0
-0.377488 -0.036135 0.245399 255 0 0
-0.886406 0.016304 -0.225589 255 0 0
0.866367 -0.005098 0.147447 255 0 0
-0.190668 -0.011325 0.411753 0 127 127
0.837507 0.001543 -0.093010 255 0 0
-0.812551 0.024082 -0.204064 255 0 0
-0.058785 0.011773 -0.093513 255 0 0
0.809013 0.003959 -0.023331 255 0 0
0.211254 0.035998 -0.013284 76 0 153
-0.639801 0.058011 -0.211005 153 0 76
0.486203 0.000435 -0.083059 255 0 0
-0.530185 -0.013596 0.317059 76 153 0
0.646397 0.048774 -0.128040 255 0 0
-0.279593 -0.028271 -0.375724 255 0 0
0.738714 -0.019282 -0.379845 255 0 0
0.265580 0.051740 -0.269772 255 0 0
-0.089216 0.005460 -0.036806 255 0 0
0.432598 -0.021658 0.206761 255 0 0
-0.633374 0.018991 -0.158339 255 0 0
0.684350 -0.004224 0.050168 255 0 0
0.267688 0.018700 0.077301 255 0 0
0.214295 0.042979 -0.075990 255 0 0
0.816999 0.035279 -0.290263 255 0 0
0.049127 0.036140 -0.014562 153 0 76
-0.554454 -0.019069 0.366217 255 0 0
-0.185959 0.038776 -0.052628 0 127 127
0.640832 0.022794 -0.009792 255 0 0
-0.106027 0.052534 -0.276902 255 0 0
-0.070696 0.044019 -0.200425 255 0 0
-0.475619 -0.005314 0.242675 255 0 0
0.163326 0.003289 -0.277064 255 0 0
0.425851 0.044331 -0.363857 255 0 0
0.482659 -0.055100 -0.323741 255 0 0
0.067337 -0.035296 0.237870 255 0 0
-0.068363 -0.036343 -0.360621 255 0 0
0.546538 0.000330 0.009269 255 0 0
-0.708521 -0.005128 0.240999 255 0 0
0.001984 0.010413 0.216510 255 0 0
-0.744001 0.004703 -0.030010 255 0 0
-0.753645 0.009739 0.107468 255 0 0
-0.306256 0.043212 -0.099372 255 0 0
-0.011726 0.013085 0.077418 255 0 0
0.251540 -0.025835 -0.277559 255 0 0
0.499252 0.046813 -0.225517 255 0 0
0.123932 0.022186 -0.004326 255 0 0
0.849912 0.021251 -0.178642 255 0 0
0.277295 -0.016918 0.346895 255 0 0
0.188518 0.043513 -0.354633 255 0 0
-0.325427 -0.054677 -0.320529 255 0 0
-0.560518 0.006942 -0.141504 255 0 0
0.481390 -0.015288 0.417076 255 0 0
-0.532323 0.002684 -0.011872 255 0 0
0.741675 0.037882 -0.030210 255 0 0
0.236177 -0.014199 -0.375170 255 0 0
-0.255120 0.056250 -0.310282 255 0 0
0.683282 -0.044737 0.322661 255 0 0
0.793446 0.031706 0.025259 255 0 0
-0.721226 -0.025073 0.146042 255 0 0
-0.841705 -0.025988 0.245650 255 0 0
-0.594008 0.019956 0.015701 0 255 0
0.328998 0.017230 -0.279708 255 0 0
0.267861 -0.011943 0.028112 255 0 0
-0.428507 0.005109 0.264147 127 0 127
0.191148 -0.011295 0.113679 255 0 0
0.083135 -0.054648 -0.320308 255 0 0
0.754207 -0.044490 0.320442 255 0 0
-0.395218 0.008118 -0.060681 255 0 0
0.306657 0.022848 -0.192987 255 0 0
0.866367 -0.026024 -0.307667 255 0 0
-0.900968 0.007655 -0.056523 255 0 0
0.078762 0.009748 0.222487 153 0 76
-0.590645 -0.018517 0.419043 255 0 0
-0.599379 0.051378 -0.151429 76 0 153
0.608273 -0.017325 0.076460 255 0 0
0.222534 0.006503 0.240085 76 0 153
0.566091 0.026573 -0.043725 255 0 0
-0.286526 0.018429 0.029418 127 0 127
-0.159829 0.030864 -0.367815 255 0 0
-0.397501 0.005884 -0.132001 255 0 0
-0.370307 0.040840 -0.296573 255 0 0
-0.711074 0.041049 -0.173750 255 0 0
0.340554 -0.042897 0.441757 255 0 0
0.314255 0.007742 -0.057305 255 0 0
0.482232 -0.010289 0.350360 127 127 0
0.119579 0.021298 0.064938 255 0 0
-0.418135 -0.039179 0.364128 255 0 0
-0.508450 0.006410 -0.136726 255 0 0
-0.068806 -0.017210 0.075422 255 0 0
-0.711621 0.016300 0.048539 255 0 0
0.293327 -0.012208 0.419688 255 0 0
-0.425243 -0.025713 -0.369791 255 0 0
0.536920 -0.015641 0.061331 255 0 0
-0.739546 -0.053768 0.420204 255 0 0
0.262245 0.024442 -0.024589 255 0 0
-0.558501 0.044898 -0.363118 255 0 0
0.614859 -0.046538 0.338840 255 0 0
0.642678 -0.039497 -0.356511 255 0 0
0.733959 -0.013942 0.320171 255 0 0
-0.737581 0.028366 -0.242550 255 0 0
0.384670 0.016694 0.045006 76 0 153
0.526913 0.045997 -0.103099 255 0 0
0.410431 0.036837 -0.020825 255 0 0
-0.753366 -0.023758 -0.377991 255 0 0
0.786138 -0.002364 0.216176 255 0 0
0.209680 0.050768 -0.145950 153 0 76
0.652106 0.002147 -0.098435 255 0 0
0.632691 0.024363 0.047480 204 51 127
0.539209 0.049547 -0.250072 255 0 0
-0.651183 0.033284 -0.104004 255 0 0
-0.711252 0.061252 -0.248466 76 0 153
0.053893 -0.006386 -0.271493 255 0 0
0.749950 -0.013391 0.041116 255 0 0
0.814125 0.060207 -0.230728 76 0 153
0.164362 -0.034684 0.323751 255 0 0
0.483758 0.017527 0.152618 0 255 0
0.088919 -0.020164 0.418860 0 127 127
-0.912785 0.022824 -0.357298 255 0 0
0.598531 0.033625 -0.107066 255 0 0
-0.652798 0.000139 0.193696 255 0 0
-0.571595 0.025022 0.085296 255 0 0
-0.267934 -0.038324 0.356449 255 0 0
-0.034656 0.008960 0.114464 255 0 0
-0.269231 -0.011605 0.414274 0 127 127
0.266677 0.000657 0.189040 255 0 0
0.064683 -0.052191 0.389618 255 0 0
0.593930 -0.026299 0.248447 255 0 0
0.405059 -0.014071 0.138611 255 0 0
-0.233204 0.008905 0.114961 76 0 153
-0.252110 0.001832 0.178489 255 0 0
-0.202033 0.001511 -0.001339 255 0 0
-0.867591 -0.012078 0.303424 255 0 0
0.566024 -0.049679 0.367052 255 0 0
-0.840991 0.021059 0.005795 255 0 0
-0.748140 -0.000168 0.311551 76 0 153
0.357551 -0.039276 -0.297891 255 0 0
0.708789 -0.010994 0.293687 255 0 0
0.529473 0.022558 0.107424 255 0 0
-0.623973 -0.039321 -0.367030 255 0 0
0.561178 -0.020812 0.418788 255 0 0
0.701216 -0.054958 -0.332029 255 0 0
-0.291371 -0.013376 -0.272413 255 0 0
-0.184950 0.040450 -0.154348 0 255 0
-0.322971 0.038433 -0.035155 127 0 127
0.201259 0.015267 0.057819 255 0 0
0.850916 -0.006466 0.070305 255 0 0
0.787690 -0.042053 0.298557 255 0 0
-0.068572 -0.034866 0.325391 255 0 0
0.192073 -0.016388 0.419280 255 0 0
-0.273108 0.021480 0.117114 76 0 153
-0.693824 -0.028379 0.267123 255 0 0
-0.626209 0.009645 0.108310 255 0 0
-0.075588 0.061666 -0.243832 76 0 153
-0.852278 -0.027610 0.442928 255 0 0
0.767541 -0.016975 0.164700 255 0 0
-0.682972 -0.041029 0.380745 255 0 0
0.540950 -0.024019 0.136582 255 0 0
-0.219591 -0.035147 0.327915 255 0 0
-0.697379 0.012139 0.201008 255 0 0
0.360501 0.030036 -0.074836 255 0 0
0.529033 0.025544 -0.034486 255 0 0
0.246524 0.015094 -0.214724 255 0 0
-0.387067 -0.009565 0.006753 255 0 0
0.664546 -0.019737 0.189507 255 0 0
0.023083 -0.046842 0.432955 255 0 0
-0.671646 0.015533 -0.218669 255 0 0
-0.668021 0.021976 -0.002437 255 0 0
0.723600 -0.043491 0.402862 255 0 0
-0.069276 -0.002978 0.221690 255 0 0
-0.851716 0.036062 -0.128955 255 0 0
-0.174531 -0.013391 0.041125 255 0 0
-0.479354 -0.054852 0.413513 255 0 0
0.841095 -0.007422 -0.005593 255 0 0
0.488056 0.009695 -0.166232 255 0 0
0.435449 -0.000668 0.316039 127 127 0
-0.260658 0.000286 -0.081721 255 0 0
-0.317482 0.050673 -0.260193 255 0 0
0.425554 0.014196 -0.382508 255 0 0
0.802768 0.018109 0.147392 255 0 0
0.116782 0.034558 -0.115451 255 0 0
0.291212 0.008910 0.230009 153 76 0
0.396668 -0.044080 0.408152 255 0 0
0.696219 0.003719 0.161542 255 0 0
0.392312 0.002690 -0.011932 255 0 0
-0.189541 0.044242 -0.087336 0 255 0
0.221280 0.007951 0.123532 255 0 0
0.186213 0.058442 -0.214878 76 153 0
0.601627 0.022051 0.111981 255 0 0
-0.813691 0.012330 -0.098513 255 0 0
-0.548861 -0.019587 0.096774 255 0 0
0.375027 0.008144 -0.152303 255 0 0
0.326742 -0.010258 0.287082 255 0 0
-0.477682 0.031565 -0.088562 255 0 0
0.017064 0.051262 -0.323017 255 0 0
0.474383 -0.031349 0.293799 255 0 0
-0.585062 0.001877 -0.096011 255 0 0
0.171547 0.017731 0.035687 255 0 0
-0.376818 0.009298 -0.162663 255 0 0
-0.349501 -0.025186 0.147057 255 0 0
-0.015023 0.006786 0.247522 153 0 76
0.276258 -0.028659 0.269640 255 0 0
0.214697 0.018657 -0.246727 255 0 0
-0.768386 -0.024200 0.138204 255 0 0
0.653687 -0.030654 0.287558 255 0 0
0.741931 0.060177 -0.230461 76 0 153
-0.755524 -0.016973 0.073298 255 0 0
0.026754 -0.040233 -0.288848 255 0 0
-0.374490 -0.038558 -0.367830 255 0 0
0.115119 0.039707 -0.046600 153 0 76
0.602157 0.022150 -0.186711 255 0 0
-0.487324 -0.024086 0.137184 255 0 0
0.436742 0.034438 -0.086090 255 0 0
-0.094377 0.020129 0.129248 153 0 76
0.082780 0.051278 -0.150526 76 0 153
0.539951 -0.000199 0.196735 255 0 0
0.438417 0.008727 0.231656 76 0 153
-0.749258 0.014374 -0.116872 255 0 0
0.351527 -0.018795 0.089655 255 0 0
0.091882 0.052300 -0.351506 255 0 0
-0.436447 0.025996 -0.221255 255 0 0
-0.430637 0.013161 0.191829 127 0 127
-0.086431 -0.026469 0.432684 255 0 0
0.024517 -0.003543 0.044056 255 0 0
-0.649533 -0.027912 0.171543 255 0 0
-0.860223 -0.054395 -0.336306 255 0 0
-0.763675 0.007021 0.246979 0 0 255
-0.275619 -0.006134 0.250035 127 127 0
0.483829 0.003995 0.274160 153 0 76
0.616865 0.051388 -0.266616 255 0 0
-0.835386 0.024359 -0.264198 255 0 0
0.147173 0.008186 0.236512 76 0 153
-0.254869 -0.002138 0.031431 255 0 0
-0.371064 -0.004298 0.050837 255 0 0
0.580512 -0.021700 -0.378844 255 0 0
0.608635 -0.055002 -0.322996 255 0 0
0.212601 0.000760 0.005406 255 0 0
0.754052 -0.027203 0.256566 255 0 0
-0.654992 0.027579 0.047838 255 0 0
0.665478 -0.042311 0.392260 255 0 0
-0.657350 -0.043000 0.441746 255 0 0
0.836384 0.007821 -0.270483 255 0 0
0.334140 0.023295 0.100808 127 127 0
-0.502802 0.003043 0.167615 76 0 153
-0.360006 0.015706 0.166029 153 76 0
0.630670 0.027099 -0.370704 255 0 0
0.102779 -0.052055 0.388391 255 0 0
0.132038 -0.000941 -0.070703 255 0 0
-0.203074 -0.001531 0.283622 255 0 0
-0.554985 0.013186 -0.197588 255 0 0
0.115261 -0.021475 0.113733 255 0 0
-0.075917 0.014550 0.064257 76 153 0
-0.606461 -0.021433 0.113357 255 0 0
-0.571488 0.026194 -0.040326 255 0 0
0.495009 0.018702 0.026968 153 0 76
-0.333787 0.014355 0.071322 153 76 0
-0.437689 0.022355 -0.005840 255 0 0
-0.342609 -0.011348 0.114156 255 0 0
0.730018 0.008840 0.230637 204 51 127
-0.213414 -0.004853 -0.377081 255 0 0
-0.104583 -0.011702 -0.382497 255 0 0
0.680204 0.020250 0.013062 255 0 0
-0.611411 0.012355 -0.190124 255 0 0
0.582745 -0.011780 -0.278521 255 0 0
0.038198 -0.020432 0.378461 255 0 0
-0.904937 -0.021263 0.203212 255 0 0
0.752432 -0.000368 -0.075847 255 0 0
0.423106 -0.035763 -0.293313 255 0 0
0.367864 -0.026206 0.247608 255 0 0
0.732323 -0.007834 -0.008788 255 0 0
0.355592 -0.018878 0.181789 255 0 0
0.841095 0.002808 0.226057 204 51 127
-0.094913 -0.036793 0.251310 255 0 0
0.799305 -0.034228 -0.283537 255 0 0
-0.641140 0.003041 -0.277032 255 0 0
-0.806670 0.032016 -0.053381 255 0 0
0.247274 -0.014863 0.145728 255 0 0
0.865666 -0.023157 0.220226 255 0 0
-0.264340 0.060765 -0.235742 0 0 255
-0.695184 -0.034470 0.230446 255 0 0
0.389407 -0.006163 0.365389 127 127 0
-0.454769 -0.018390 0.419057 76 153 0
0.294106 -0.003984 0.048014 255 0 0
-0.810520 -0.027549 0.259669 255 0 0
-0.376441 -0.055196 -0.330222 255 0 0
-0.318624 0.006474 0.158810 255 0 0
-0.704526 0.007957 -0.150619 255 0 0
0.746613 0.013647 -0.201725 255 0 0
-0.014520 0.017376 -0.235220 255 0 0
-0.309754 -0.002741 0.219560 255 0 0
0.144311 -0.051484 -0.307430 255 0 0
-0.223305 0.045746 -0.215940 255 0 0
-0.143477 -0.043406 0.402096 255 0 0
0.309772 0.051135 -0.264337 255 0 0
0.438744 0.004101 -0.024603 255 0 0
0.364456 0.025429 -0.216163 255 0 0
0.190857 0.021763 -0.183237 255 0 0
-0.389580 -0.016056 0.156443 255 0 0
-0.539809 0.037960 -0.146007 255 0 0
0.425244 0.010167 0.103628 255 0 0
-0.089709 0.023449 -0.282284 255 0 0
-0.154072 0.000418 0.306288 0 127 127
-0.405341 0.025022 0.085297 153 76 0
0.519862 -0.007728 -0.009741 255 0 0
0.191307 -0.002221 -0.059209 255 0 0
-0.880529 0.001550 -0.093073 255 0 0
0.762007 0.004249 -0.025931 255 0 0
0.678789 -0.026840 0.253300 255 0 0
0.042879 0.034284 -0.112988 255 0 0
-0.556181 0.010688 0.134084 255 0 0
-0.502702 0.051629 -0.268772 255 0 0
0.443814 -0.025169 0.238298 255 0 0
-0.416420 -0.026470 0.249976 255 0 0
0.759488 0.032536 0.017805 255 0 0
-0.886098 0.039258 -0.042566 0 0 255
0.777211 0.015267 -0.124894 255 0 0
-0.184197 -0.037792 -0.286272 255 0 0
0.645555 -0.023798 0.134593 255 0 0
-0.886989 -0.005704 -0.027919 255 0 0
0.572375 0.051383 -0.151477 255 0 0
-0.033785 0.019145 -0.159727 255 0 0
-0.696971 0.029138 -0.066766 153 76 0
0.798354 -0.049797 0.368111 255 0 0
-0.397633 -0.021217 0.385509 255 0 0
-0.170507 -0.004055 0.231364 0 127 127
0.130167 0.015190 -0.215592 255 0 0
0.502499 -0.031778 0.206268 255 0 0
-0.631647 -0.011228 0.295790 153 0 76
-0.297003 -0.017693 0.353855 255 0 0
-0.683807 -0.027511 -0.376307 255 0 0
-0.763155 0.016491 0.046827 0 0 255
-0.912785 0.025870 -0.124114 255 0 0
0.611513 -0.023649 0.133260 255 0 0
-0.789468 0.045235 -0.096252 204 51 127
0.780754 0.051107 -0.332851 255 0 0
0.247783 0.029868 -0.073320 255 0 0
0.598439 0.045698 -0.215502 255 0 0
-0.651969 0.041806 -0.180545 153 0 76
-0.348950 0.021853 0.022311 255 0 0
0.187495 -0.028080 0.173056 255 0 0
-0.103781 -0.018344 0.176989 255 0 0
0.770747 -0.004111 -0.277512 255 0 0
0.840169 -0.008562 0.271848 204 51 127
0.096928 -0.033142 0.218523 255 0 0
-0.232388 -0.000738 0.316667 0 127 127
0.017793 0.004868 0.151222 255 0 0
-0.180181 -0.032904 0.307770 255 0 0
-0.580727 0.000162 0.193485 255 0 0
-0.072023 0.056516 -0.312666 255 0 0
0.073408 0.033609 0.008174 153 0 76
0.127336 -0.028873 0.271565 255 0 0
0.559621 -0.025201 0.238584 255 0 0
0.594920 0.057081 -0.335461 255 0 0
0.820381 0.023800 -0.201537 255 0 0
-0.117029 -0.019129 0.366753 255 0 0
-0.273759 -0.044407 0.411086 255 0 0
-0.210321 -0.026326 0.248690 255 0 0
-0.792121 -0.040714 0.377914 255 0 0
-0.893482 -0.015151 0.148316 255 0 0
0.721969 -0.027138 0.164589 255 0 0
-0.165668 0.028722 -0.245747 255 0 0
-0.238453 -0.006278 0.251332 255 0 0
-0.855779 -0.050433 0.373820 255 0 0
0.540416 0.003569 0.277981 153 0 76
0.754975 0.010995 0.096193 255 0 0
-0.799911 0.051609 -0.329038 255 0 0
-0.823724 0.005994 0.256203 0 0 255
0.438017 0.016060 0.050694 255 0 0
0.316430 -0.017902 0.355735 255 0 0
0.586724 -0.014346 0.323792 255 0 0
-0.467419 0.051867 -0.270913 255 0 0
-0.409181 0.017886 -0.374710 255 0 0
0.290268 -0.002084 0.303903 127 0 127
-0.091511 -0.037627 0.350192 255 0 0
-0.063009 -0.020052 0.375044 255 0 0
-0.893463 -0.035174 -0.370427 255 0 0
0.576514 0.029721 -0.285998 255 0 0
-0.642907 -0.004888 -0.035254 255 0 0
0.701128 0.019250 -0.252055 255 0 0
0.564254 0.057918 -0.210171 0 0 255
-0.727760 -0.044933 0.324427 255 0 0
0.379595 0.007527 -0.055377 255 0 0
0.672466 0.038043 -0.146750 204 51 127
0.749438 0.052208 -0.273975 255 0 0
-0.351036 0.002187 -0.007414 255 0 0
-0.111565 0.000823 -0.086545 255 0 0
0.343596 -0.001339 0.206966 255 0 0
-0.637092 -0.034824 0.325012 255 0 0
-0.487860 -0.011545 0.298639 255 0 0
-0.434107 -0.001320 -0.067300 255 0 0
-0.907285 -0.008810 0.091362 255 0 0
-0.765260 -0.039585 0.276387 255 0 0
0.524716 -0.003993 -0.383512 255 0 0
-0.796069 -0.000108 0.013205 255 0 0
0.486524 -0.016758 0.162747 255 0 0
-0.531454 -0.042193 0.299811 255 0 0
0.189052 -0.015661 0.335603 255 0 0
0.537069 -0.000640 -0.073405 255 0 0
0.274461 0.018116 -0.150481 255 0 0
0.538686 0.036885 -0.136350 255 0 0
-0.570877 -0.027957 0.443420 255 0 0
0.619731 0.029212 -0.067428 255 0 0
0.505341 0.030836 -0.082015 255 0 0
0.531629 0.022844 -0.192945 255 0 0
-0.046012 -0.017975 -0.274303 255 0 0
-0.369554 0.037120 -0.138458 255 0 0
0.018043 0.010734 -0.175564 255 0 0
0.334863 0.002914 0.168769 127 127 0
0.093664 -0.045223 0.327026 255 0 0
0.584743 -0.003963 -0.043558 255 0 0
-0.402868 -0.019497 0.187347 255 0 0
-0.638837 -0.043557 -0.304662 255 0 0
0.486483 0.016286 -0.375373 255 0 0
-0.111694 0.017245 -0.142659 255 0 0
0.692819 -0.011845 -0.382478 255 0 0
0.503555 -0.042845 0.305669 255 0 0
-0.427562 0.041205 -0.095828 76 153 0
-0.379816 0.012573 -0.100699 255 0 0
-0.702503 0.041531 -0.357216 255 0 0
-0.071972 0.010620 0.099554 255 0 0
-0.882352 0.053080 -0.281805 255 0 0
0.409017 -0.004686 0.237033 76 0 153
0.397114 0.029729 -0.072072 255 0 0
-0.378870 0.027270 -0.232705 255 0 0
0.649101 0.017395 -0.235395 255 0 0
0.864680 0.049458 -0.249280 255 0 0
-0.885559 -0.015596 0.418245 255 0 0
0.187158 -0.048206 -0.355174 255 0 0
-0.265409 0.004726 -0.121605 255 0 0
0.682092 -0.048204 -0.299513 255 0 0
0.272910 -0.034234 0.319715 255 0 0
-0.312223 -0.006948 0.283019 255 0 0
0.731211 -0.049470 0.365176 255 0 0
-0.380634 0.051587 -0.329207 255 0 0
0.173913 0.035616 -0.080936 255 0 0
-0.227272 -0.020437 0.378501 255 0 0
-0.645326 0.040807 -0.358160 255 0 0
0.217481 -0.038428 0.266001 255 0 0
-0.450600 0.037840 -0.144929 255 0 0
0.059327 -0.009792 0.282897 255 0 0
-0.380495 0.044287 -0.202831 255 0 0
-0.841348 -0.000270 -0.076726 255 0 0
0.516849 -0.042222 0.391460 255 0 0
-0.082937 0.004007 0.158955 153 0 76
0.050794 -0.047864 -0.316766 255 0 0
-0.107437 0.022748 -0.009378 76 153 0
-0.157945 0.022092 -0.003483 255 0 0
-0.282587 0.044610 -0.205734 127 127 0
-0.691238 -0.036184 0.337225 255 0 0
0.442144 -0.042030 0.389731 255 0 0
0.708021 0.008803 -0.066834 255 0 0
-0.697278 0.036420 -0.132177 255 0 0
0.251228 0.061184 -0.239502 0 127 127
0.841095 0.039294 -0.122912 204 51 127
-0.114303 -0.030797 0.288846 255 0 0
0.778997 -0.019888 0.373575 255 0 0
0.395732 0.059927 -0.228215 0 255 0
-0.278100 0.020009 -0.280859 255 0 0
-0.041123 0.020411 0.011620 255 0 0
0.018835 0.034424 0.000846 153 0 76
-0.340031 -0.039651 0.368370 255 0 0
0.338805 0.018992 -0.158347 255 0 0
-0.212481 0.014541 0.156123 76 0 153
0.821521 0.047796 -0.359342 255 0 0
-0.127958 0.033053 -0.101929 255 0 0
0.353602 -0.012290 0.031234 255 0 0
-0.624251 0.010476 -0.081858 255 0 0
0.775298 -0.016332 0.341636 255 0 0
-0.219443 0.032902 0.014517 0 127 127
-0.268313 0.010933 -0.177352 255 0 0
-0.800560 -0.040470 -0.289158 255 0 0
-0.563965 0.053564 -0.286152 255 0 0
0.339891 -0.021234 0.385662 255 0 0
0.732721 0.039560 -0.160379 255 0 0
0.064499 -0.023209 0.129302 255 0 0
0.570407 -0.042268 0.300487 255 0 0
-0.847912 0.047375 -0.230564 255 0 0
0.866367 0.006184 -0.370833 255 0 0
0.833921 -0.040939 0.288551 255 0 0
-0.340795 0.052239 -0.159163 127 0 127
-0.136601 0.050643 -0.318313 255 0 0
-0.399096 0.015690 0.054022 153 76 0
0.552476 -0.049764 -0.303277 255 0 0
-0.326688 -0.039714 0.442111 255 0 0
-0.815951 0.017399 0.038673 255 0 0
-0.553388 -0.042208 -0.363267 255 0 0
-0.000430 0.023659 -0.372319 255 0 0
-0.558340 0.009759 -0.075421 255 0 0
-0.895086 -0.019627 0.371227 255 0 0
0.430961 0.060788 -0.248517 0 255 0
0.297441 -0.019374 0.186241 255 0 0
-0.689524 0.009847 0.106496 204 51 127
-0.129907 0.023136 -0.195576 255 0 0
-0.492550 -0.006038 0.364274 76 153 0
-0.438757 -0.020840 0.382128 255 0 0
0.068013 0.010671 0.099099 255 0 0
0.474206 0.051739 -0.269768 255 0 0
-0.022447 0.012424 0.165663 255 0 0
-0.685890 -0.000984 -0.070315 255 0 0
-0.631888 0.022925 -0.010964 255 0 0
0.161545 0.010049 0.152579 127 0 127
0.394878 0.001252 0.183695 255 0 0
0.117477 0.003164 -0.107571 255 0 0
-0.586790 -0.022191 -0.282830 255 0 0
-0.258557 0.003723 -0.021210 255 0 0
0.712615 -0.009975 0.399634 255 0 0
-0.521996 0.046364 -0.221490 255 0 0
0.216261 0.045569 -0.214346 76 153 0
0.081422 0.031631 -0.089157 255 0 0
-0.458244 0.029419 0.045806 127 127 0
0.706048 -0.034538 0.442688 255 0 0
-0.461855 -0.018034 0.356919 255 0 0
-0.669248 -0.015234 0.149062 255 0 0
0.361652 0.023736 -0.372287 255 0 0
0.504799 0.006323 -0.135949 255 0 0
-0.156301 -0.013612 0.134488 255 0 0
0.233432 -0.034669 0.323625 255 0 0
0.595617 0.004710 -0.121462 255 0 0
-0.480823 0.049131 -0.131244 76 153 0
0.422166 0.025288 -0.214903 255 0 0
-0.202295 -0.002208 0.214778 255 0 0
0.653912 0.013738 0.071554 255 0 0
-0.688753 0.054472 -0.294312 255 0 0
-0.597724 -0.004590 0.236168 255 0 0
-0.912785 -0.031623 -0.324175 255 0 0
0.801984 0.050482 -0.258477 255 0 0
0.503403 -0.027753 0.443443 255 0 0
0.693357 0.032902 -0.374147 255 0 0
-0.377892 -0.008938 0.092507 255 0 0
-0.031790 0.001385 0.282552 76 153 0
-0.229040 -0.006065 0.066703 255 0 0
-0.172813 -0.015834 0.337161 255 0 0
0.828640 -0.015805 0.336899 255 0 0
-0.054631 -0.055031 -0.331471 255 0 0
-0.536384 -0.044137 -0.306061 255 0 0
0.226658 0.035068 -0.120025 255 0 0
-0.577106 0.010447 -0.172986 255 0 0
-0.746810 0.000860 0.004505 255 0 0
-0.283793 -0.013451 0.133049 255 0 0
-0.658628 0.056455 -0.312122 255 0 0
0.299495 0.018973 -0.249567 255 0 0
-0.293330 0.029242 -0.251291 255 0 0
0.506437 -0.025572 0.241910 255 0 0
-0.327308 0.008740 -0.066269 255 0 0
0.728599 0.007854 0.124398 255 0 0
0.315935 0.050177 -0.339917 255 0 0
0.057946 0.051307 -0.353904 255 0 0
-0.852687 0.028594 -0.369556 255 0 0
-0.033892 0.045500 -0.351555 255 0 0
-0.129953 0.027821 -0.054943 0 127 127
0.448563 -0.016193 0.340384 255 0 0
0.256412 0.017369 0.046547 153 76 0
-0.627120 -0.011756 0.415626 153 0 76
0.040733 -0.018476 -0.373399 255 0 0
-0.390307 -0.004595 0.236212 255 0 0
-0.145150 0.017310 0.039468 255 0 0
-0.784392 -0.011329 0.303349 153 76 0
0.801152 -0.053958 -0.315064 255 0 0
-0.145100 -0.028946 0.180833 255 0 0
-0.161911 -0.020877 0.382458 255 0 0
0.127536 0.007485 -0.146383 255 0 0
0.327675 -0.041569 0.294208 255 0 0
0.158153 -0.030926 0.290006 255 0 0
0.286069 0.000428 -0.083003 255 0 0
0.390988 -0.033516 0.221881 255 0 0
-0.306608 -0.021309 0.386337 255 0 0
-0.079331 -0.010003 0.284787 255 0 0
-0.445460 -0.014298 0.323365 255 0 0
0.369732 -0.008945 -0.382860 255 0 0
0.164287 0.051473 -0.267371 255 0 0
0.214297 -0.036396 -0.285200 255 0 0
0.127709 -0.033882 0.225166 255 0 0
-0.717925 0.033760 -0.108278 255 0 0
-0.750536 0.035820 -0.011691 255 0 0
-0.206055 -0.003846 0.344584 0 127 127
0.786167 0.024151 -0.282575 255 0 0
0.102988 0.000510 0.007650 255 0 0
-0.424037 -0.051999 0.420401 255 0 0
-0.538292 0.020168 0.013798 255 0 0
-0.851495 0.052061 -0.272655 255 0 0
0.359793 0.042481 -0.186613 0 255 0
-0.242000 0.027007 -0.047629 255 0 0
0.600635 0.029740 0.042918 153 0 76
0.027507 -0.023833 0.134905 255 0 0
0.709800 0.037143 -0.023574 204 51 127
0.161775 0.024513 -0.025223 255 0 0
0.595458 -0.019554 0.187863 255 0 0
-0.539818 -0.003629 0.227535 255 0 0
-0.008867 -0.016081 0.339376 255 0 0
-0.766208 -0.008891 0.389498 76 0 153
-0.176200 0.042772 -0.189221 255 0 0
-0.879273 0.051299 -0.353924 255 0 0
0.294129 -0.043728 -0.349614 255 0 0
0.124853 -0.054549 0.410792 255 0 0
-0.745403 0.007369 -0.377088 255 0 0
-0.184990 -0.039732 0.369097 255 0 0
-0.866081 0.019288 -0.252396 255 0 0
0.235556 -0.005448 0.061168 255 0 0
-0.645107 -0.050522 0.374625 255 0 0
-0.217871 -0.014827 0.145401 255 0 0
-0.607825 0.017235 0.155236 153 0 76
0.452488 0.017432 0.153467 255 0 0
-0.187812 0.050331 -0.356037 255 0 0
-0.233392 0.047421 -0.115884 0 255 0
-0.531416 0.033861 -0.109188 76 153 0
0.396739 -0.006633 0.071809 255 0 0
-0.598976 -0.041959 0.441861 255 0 0
-0.665919 0.029538 -0.070358 255 0 0
0.559112 -0.008092 0.084908 255 0 0
-0.881611 0.015497 0.055758 255 0 0
0.635679 -0.041269 0.382896 255 0 0
0.074906 -0.038651 0.268004 255 0 0
-0.345954 -0.015163 0.331138 255 0 0
-0.728491 -0.020500 0.379072 255 0 0
-0.708702 -0.024773 0.417447 76 0 153
0.048984 -0.055320 0.417721 255 0 0
-0.127473 0.022040 0.112083 153 0 76
-0.629560 -0.000988 0.021104 255 0 0
-0.309688 0.007394 0.128535 255 0 0
0.127065 -0.046396 -0.357810 255 0 0
-0.032235 -0.024380 0.413923 255 0 0
0.264379 0.003997 -0.277158 255 0 0
-0.707778 -0.018399 0.086104 255 0 0
0.556036 0.031711 -0.089881 255 0 0
0.197662 0.052653 -0.277978 255 0 0
0.486033 -0.039604 0.367947 255 0 0
0.464942 0.028644 -0.062326 255 0 0
-0.714799 0.045077 -0.209926 76 0 153
-0.783896 -0.047345 0.441262 255 0 0
0.079608 0.017058 0.156824 0 127 127
-0.363299 0.030719 -0.080966 255 0 0
0.046461 0.006705 0.163127 0 127 127
0.220712 -0.021437 0.113392 255 0 0
0.532584 -0.048972 -0.353325 255 0 0
-0.794995 -0.032649 0.214096 255 0 0
0.413367 -0.039661 0.277069 255 0 0
0.641892 -0.012834 0.310217 255 0 0
0.426566 0.025239 -0.283025 255 0 0
-0.242179 -0.023677 0.224891 255 0 0
-0.252645 0.015357 0.057007 255 0 0
0.638920 -0.033008 0.217316 255 0 0
-0.447013 -0.033814 0.224555 255 0 0
0.447713 -0.024470 0.414731 255 0 0
-0.341510 0.042589 -0.355838 255 0 0
0.696929 0.016998 -0.140438 255 0 0
-0.335411 -0.005635 0.245553 255 0 0
0.563289 -0.047086 0.435145 255 0 0
-0.502266 0.009043 -0.068987 255 0 0
0.658028 0.007397 0.128505 255 0 0
-0.244846 0.041578 -0.178500 255 0 0
-0.526915 -0.039725 0.369029 255 0 0
0.170461 0.023560 0.098431 127 0 127
0.008772 -0.009340 0.278830 153 0 76
0.368510 -0.021659 0.115381 255 0 0
-0.012740 -0.007824 -0.278000 255 0 0
-0.379425 -0.052114 0.420388 255 0 0
0.688807 0.049724 -0.251668 153 0 76
0.841095 0.046858 -0.223522 255 0 0
0.165951 -0.001685 0.210079 76 0 153
0.843455 -0.041226 -0.354258 255 0 0
0.086523 -0.005520 0.061812 255 0 0
-0.397793 0.039245 -0.157544 255 0 0
-0.410395 -0.023608 0.132889 255 0 0
-0.820380 0.006419 -0.136809 255 0 0
0.054203 0.004558 -0.028706 255 0 0
0.056020 0.022140 -0.186628 255 0 0
0.496380 -0.009897 0.101123 255 0 0
0.740670 0.036108 -0.371686 255 0 0
-0.345871 0.023002 0.103438 153 76 0
0.291620 0.022288 -0.005239 255 0 0
-0.027196 0.016043 0.050846 255 0 0
-0.289741 -0.006517 -0.020616 255 0 0
-0.591334 0.030013 -0.286222 255 0 0
-0.584944 -0.029548 0.277625 255 0 0
0.567952 0.029317 -0.251637 255 0 0
-0.619464 -0.025067 -0.277241 255 0 0
0.240479 -0.010796 0.291908 255 0 0
-0.691007 0.000180 0.308419 76 0 153
-0.600621 -0.015602 0.060978 255 0 0
0.376089 -0.015788 0.339315 255 0 0
-0.101204 0.007996 0.238222 76 153 0
-0.811900 -0.017559 0.352657 255 0 0
-0.132609 -0.049714 -0.351533 255 0 0
-0.743280 -0.024034 0.228103 255 0 0
-0.044246 -0.038081 0.262885 255 0 0
-0.672488 0.001798 -0.384140 255 0 0
-0.482451 0.023851 -0.282450 255 0 0
0.267550 0.041760 -0.180133 255 0 0
0.756003 0.056819 -0.315395 255 0 0
0.634946 -0.020911 -0.275519 255 0 0
0.012935 -0.037142 0.254446 255 0 0
-0.028850 0.048894 -0.168471 153 0 76
-0.420789 0.005825 0.142623 153 76 0
0.835080 -0.053037 0.420286 255 0 0
0.436796 -0.019270 0.093921 255 0 0
-0.304765 0.039654 -0.161215 255 0 0
0.719287 -0.017358 0.350849 255 0 0
0.409152 -0.000148 -0.077823 255 0 0
-0.135481 -0.000704 0.281396 76 153 0
0.511391 0.054309 -0.292850 255 0 0
-0.552160 0.001684 0.179816 0 255 0
0.700515 0.029684 0.043422 204 51 127
-0.216646 0.023204 -0.196183 255 0 0
-0.818915 -0.011684 0.299889 255 0 0
-0.585481 -0.004860 0.353694 153 0 76
-0.859648 -0.041966 0.297778 255 0 0
0.813188 0.009848 -0.076225 255 0 0
-0.460550 0.031858 -0.367052 255 0 0
-0.767970 0.046938 -0.226639 255 0 0
0.585976 0.033609 0.008168 153 0 76
0.388074 0.035519 -0.124082 255 0 0
0.103966 0.041263 -0.175675 255 0 0
