ply
format ascii 1.0
element vertex 1281
property float x
property float y
property float z
property uchar red
property uchar green
property uchar blue
end_header
-0.763438 0.040396 0.181711 153 76 0
0.863843 0.059943 -0.124426 153 76 0
0.283660 0.087577 -0.302317 153 76 0
0.381210 0.087577 -0.095478 153 76 0
-0.527462 0.087577 0.413923 153 76 0
0.125643 0.087577 -0.450124 153 76 0
-0.822394 0.023351 -0.280433 76 153 0
-0.779994 0.087577 -0.203506 153 76 0
-0.445908 -0.008323 0.471398 153 76 0
-0.836848 0.001704 -0.451583 0 0 255
0.224163 0.087577 -0.128240 153 76 0
0.257984 -0.016163 -0.538433 153 0 76
0.639751 0.040396 0.272307 153 76 0
-0.280992 0.040396 0.378455 153 76 0
0.863519 0.040396 0.279397 153 76 0
-0.461068 0.040396 0.273239 153 76 0
-0.013438 0.010924 0.486843 127 127 0
0.792040 -0.077249 -0.230229 76 0 153
0.718572 -0.317738 0.406207 153 0 76
-0.079359 0.040396 -0.058922 153 76 0
-0.623597 0.040396 -0.049597 153 76 0
-0.836848 -0.086091 0.478640 204 51 127
0.545226 -0.016169 0.410707 127 127 0
0.601643 0.040396 -0.511262 153 76 0
-0.797707 -0.062857 -0.254564 76 153 0
0.776895 0.040396 -0.065506 153 76 0
-0.828726 0.042540 -0.487121 0 0 255
0.241605 0.087577 0.277456 153 76 0
-0.362332 0.087577 -0.034595 153 76 0
0.602366 0.087577 -0.486137 153 76 0
-0.569503 0.040396 -0.090963 153 76 0
0.089467 0.040396 0.008179 153 76 0
-0.693610 0.040396 0.095882 153 76 0
-0.188226 0.087577 0.343116 153 76 0
0.120889 0.040396 -0.184615 153 76 0
-0.148616 0.041339 -0.515867 153 0 76
0.788748 0.042540 -0.420893 255 0 0
-0.818944 0.087577 -0.402652 153 76 0
-0.258667 0.040396 -0.364901 153 76 0
-0.212661 0.087577 -0.385801 153 76 0
0.203392 0.040396 0.162380 153 76 0
-0.835209 0.087577 0.267738 153 76 0
0.620998 0.040396 0.326105 153 76 0
0.614462 -0.073872 -0.441316 0 255 0
-0.335669 0.040396 -0.574604 153 76 0
-0.639702 0.040396 0.243486 153 76 0
-0.141624 0.040396 -0.562586 153 76 0
-0.875571 0.057882 -0.117453 153 76 0
0.849776 0.072864 -0.277188 153 76 0
0.830034 0.040396 0.455137 153 76 0
-0.091114 0.040396 0.295110 153 76 0
0.327441 0.040396 -0.520128 153 76 0
0.583947 0.040396 0.191318 153 76 0
-0.783048 0.087577 -0.295125 153 76 0
0.090381 0.087577 0.192463 153 76 0
0.613909 0.030627 0.449615 153 76 0
0.075888 0.069041 -0.545808 153 76 0
-0.194806 0.040396 0.339889 153 76 0
0.060721 -0.076950 0.055204 153 0 76
0.367586 0.087577 0.333867 153 76 0
-0.741871 0.040396 -0.210777 153 76 0
0.206465 -0.070684 0.323587 0 127 127
-0.402040 0.040396 -0.192451 153 76 0
-0.877455 0.056966 -0.262036 153 76 0
0.754961 -0.094980 0.373361 153 0 76
0.614033 -0.078229 -0.535324 153 0 76
-0.821918 0.039704 -0.194022 76 153 0
-0.820068 -0.053344 -0.241299 76 153 0
-0.718908 0.042540 -0.425592 0 0 255
0.092224 0.087577 0.168594 153 76 0
-0.703093 0.040396 -0.166772 153 76 0
-0.040616 0.087577 0.217229 153 76 0
-0.221695 0.087577 -0.520328 153 76 0
-0.421864 0.040396 0.004431 153 76 0
-0.819222 -0.215705 0.450194 204 51 127
0.403197 0.066283 0.484284 153 76 0
-0.099373 -0.058752 0.240670 76 0 153
-0.863990 0.065998 -0.390782 153 76 0
-0.762009 0.040396 0.071747 153 76 0
0.072161 0.087577 0.244639 153 76 0
0.107746 0.040396 -0.462557 153 76 0
0.468634 0.040396 -0.149899 153 76 0
0.783590 -0.142029 -0.513572 255 0 0
0.732239 0.087577 0.350612 153 76 0
0.152257 0.040396 -0.251989 153 76 0
-0.428136 0.040396 -0.258602 153 76 0
0.202392 0.040396 -0.427526 153 76 0
0.280014 0.087577 -0.498934 153 76 0
-0.615069 0.087577 -0.158286 153 76 0
-0.822562 0.087577 -0.463338 153 76 0
0.632702 0.040396 -0.537461 153 76 0
0.782233 -0.015880 -0.273545 0 255 0
0.556170 0.040396 -0.101408 153 76 0
-0.145216 -0.076950 0.351269 153 0 76
-0.054673 0.040396 -0.168825 153 76 0
-0.885052 0.040396 -0.264518 153 76 0
0.799652 -0.138642 -0.471844 255 0 0
-0.137531 0.087577 0.446240 153 76 0
-0.062599 0.087577 -0.457000 153 76 0
0.785191 -0.159220 -0.528701 255 0 0
-0.427806 0.052014 -0.580523 153 76 0
-0.803495 -0.275886 -0.517715 0 0 255
-0.021482 -0.039640 0.278170 76 0 153
-0.603559 0.046910 0.520020 153 76 0
-0.473639 0.087577 -0.253472 153 76 0
0.517403 0.040396 0.415923 153 76 0
0.537918 0.087577 -0.058861 153 76 0
-0.854121 0.040396 0.410566 153 76 0
0.112550 0.040396 0.358975 153 76 0
0.520984 0.052867 0.511809 153 76 0
0.202321 0.040396 -0.135237 153 76 0
0.810348 -0.079612 0.063640 76 0 153
0.277204 0.087577 0.407564 153 76 0
0.220138 -0.035799 -0.097710 0 255 0
-0.431095 0.040396 0.394718 153 76 0
-0.539847 0.040396 -0.457354 153 76 0
0.186746 0.040396 -0.109672 153 76 0
0.676499 0.043544 0.424981 153 76 0
0.220416 0.054281 0.505217 153 76 0
-0.278226 -0.080045 0.458538 153 76 0
-0.339459 0.087577 0.098809 153 76 0
-0.798575 0.029219 -0.365835 76 153 0
-0.069448 0.087577 -0.311481 153 76 0
-0.851779 0.086434 -0.054483 153 76 0
-0.398588 0.087577 -0.216846 153 76 0
-0.252698 0.087577 -0.121328 153 76 0
0.649393 -0.061130 0.342144 127 127 0
0.425601 0.040396 -0.442673 153 76 0
-0.861741 0.068163 0.481985 153 76 0
0.557791 0.087577 0.327374 153 76 0
-0.700329 -0.044627 -0.327897 0 127 127
0.748239 0.042540 -0.434209 255 0 0
-0.633925 -0.052103 0.471398 153 76 0
-0.122624 -0.076950 0.317289 153 0 76
0.405239 0.040396 -0.058408 153 76 0
0.208142 -0.010360 0.096770 0 255 0
0.768486 0.040396 0.002888 153 76 0
0.218266 -0.043928 -0.282331 0 255 0
-0.800297 0.040396 -0.210596 153 76 0
-0.479437 0.040396 -0.338083 153 76 0
0.044549 0.059500 -0.557409 153 76 0
-0.552433 0.040396 0.191606 153 76 0
-0.478625 0.087577 -0.058518 153 76 0
-0.822394 -0.010233 -0.109094 76 153 0
-0.442649 0.040396 -0.307066 153 76 0
-0.242884 0.040396 0.384998 153 76 0
0.265354 -0.040484 -0.508823 153 0 76
-0.794256 0.087577 -0.487797 153 76 0
-0.754069 -0.349494 0.457739 204 51 127
0.305223 0.087577 0.145583 153 76 0
0.314769 0.071610 -0.543575 153 76 0
-0.738109 -0.012772 -0.290118 0 127 127
-0.734916 0.025865 -0.552888 0 0 255
-0.674680 0.041289 0.411978 153 76 0
0.814318 -0.227316 0.404363 153 0 76
0.786128 -0.006461 -0.255182 0 255 0
0.088543 0.040396 -0.572686 153 76 0
0.027461 0.008420 0.471228 76 0 153
0.339434 0.018247 -0.508824 153 0 76
-0.085127 0.087577 0.024431 153 76 0
-0.683425 0.009678 0.467020 153 76 0
-0.200621 -0.031443 -0.538433 153 0 76
-0.271823 -0.052857 -0.538433 153 0 76
0.653775 -0.058862 0.302158 127 127 0
0.769890 0.040396 -0.450424 153 76 0
0.480567 0.040396 0.280122 153 76 0
-0.786179 0.087577 -0.010836 153 76 0
-0.189673 -0.076948 0.251337 153 0 76
-0.655933 0.006535 0.343656 127 0 127
-0.226325 -0.027118 -0.297408 0 255 0
-0.485606 0.040396 -0.373032 153 76 0
0.604144 0.040396 0.356693 153 76 0
0.382788 -0.018463 0.473524 153 76 0
-0.566796 0.040396 -0.402618 153 76 0
-0.834088 0.087577 0.388663 153 76 0
-0.040660 -0.058408 0.415514 76 0 153
-0.349965 0.040396 -0.114502 153 76 0
-0.607073 0.003441 0.356913 127 0 127
0.758640 0.005543 0.324297 76 0 153
-0.519970 0.040396 0.468491 153 76 0
0.641804 0.040396 -0.440174 153 76 0
-0.106192 0.087577 0.023552 153 76 0
-0.648320 0.008198 0.315666 127 0 127
-0.275608 0.087577 0.242543 153 76 0
0.427189 0.040396 0.169033 153 76 0
-0.818626 -0.033591 -0.405346 76 153 0
-0.207941 0.000623 0.267023 127 0 127
0.813342 0.001842 -0.362728 76 0 153
-0.166272 0.087577 0.067841 153 76 0
-0.045221 0.040396 0.370458 153 76 0
0.307326 0.087577 -0.213195 153 76 0
-0.122490 0.036181 0.462568 153 76 0
-0.205872 0.062364 0.488908 153 76 0
0.211609 -0.043928 0.273465 0 255 0
0.291732 0.087577 -0.111340 153 76 0
0.526266 0.040396 0.022374 153 76 0
0.386129 0.040396 0.084046 153 76 0
-0.762436 -0.359093 -0.481726 0 0 255
-0.422550 0.087577 -0.450538 153 76 0
0.692660 -0.066466 0.394086 153 0 76
0.716009 0.040396 -0.414401 153 76 0
0.798200 0.087577 0.376574 153 76 0
-0.766485 -0.170714 0.363015 204 51 127
-0.776335 0.087577 0.402371 153 76 0
0.203962 0.087577 -0.347197 153 76 0
0.694763 0.040396 -0.320232 153 76 0
-0.688657 0.087577 -0.065569 153 76 0
-0.206222 -0.050727 0.487563 127 127 0
-0.639735 -0.059195 0.324250 127 0 127
-0.749443 -0.071417 -0.408783 76 153 0
0.205219 -0.030030 0.143241 0 255 0
0.671622 0.040396 0.485552 153 76 0
0.025247 0.087577 0.130600 153 76 0
-0.473189 0.087577 -0.514470 153 76 0
-0.871041 0.040396 0.031081 153 76 0
0.420014 0.040396 0.242393 153 76 0
0.714507 -0.011830 0.241427 127 127 0
0.701025 0.023759 -0.354753 0 255 0
0.787655 0.087577 0.271770 153 76 0
-0.252038 0.087577 -0.424701 153 76 0
0.784908 -0.039761 -0.067534 76 0 153
-0.507631 0.087577 -0.466773 153 76 0
0.478660 0.040396 -0.495768 153 76 0
0.516321 -0.058657 -0.503853 0 255 0
0.283878 -0.063232 -0.538431 153 0 76
-0.584922 0.009613 0.444581 153 76 0
0.401806 0.040396 0.125302 153 76 0
0.807245 -0.007296 -0.552888 255 0 0
-0.730210 -0.339395 0.417973 204 51 127
-0.791086 0.040396 0.476269 153 76 0
0.774864 -0.014332 0.488647 153 0 76
0.007677 0.040396 -0.026456 153 76 0
0.707874 -0.094092 0.391999 153 0 76
-0.086674 0.087577 -0.209468 153 76 0
-0.538239 0.040396 -0.331409 153 76 0
0.408736 -0.058623 0.471596 153 76 0
-0.793218 0.020965 -0.260281 76 153 0
0.750544 -0.046604 0.205389 127 127 0
-0.237704 -0.079911 -0.520342 153 0 76
-0.591896 -0.060424 0.407693 127 0 127
0.777163 -0.184059 0.479293 153 0 76
0.489376 0.040396 0.202364 153 76 0
-0.106991 0.087577 0.310149 153 76 0
0.719049 -0.117059 0.419705 153 0 76
-0.902694 0.044163 -0.001376 153 76 0
0.140979 -0.076950 0.265301 153 0 76
0.433549 0.040396 -0.037157 153 76 0
0.324035 0.087577 -0.095263 153 76 0
0.129199 0.087577 -0.334505 153 76 0
0.462651 0.087577 0.314450 153 76 0
0.006349 0.087577 0.083734 153 76 0
0.847429 0.040396 -0.529640 153 76 0
0.200411 0.006933 0.487480 127 127 0
0.790468 0.087577 -0.236819 153 76 0
-0.781384 -0.265316 -0.434406 0 0 255
-0.409877 -0.076374 -0.511220 153 0 76
-0.146289 0.040396 -0.226449 153 76 0
-0.087127 0.016699 0.471229 76 0 153
0.472271 0.040396 -0.040997 153 76 0
-0.796642 -0.063196 -0.068778 76 153 0
-0.794082 -0.004346 0.077194 76 153 0
0.364719 0.040396 0.377186 153 76 0
-0.719215 -0.167604 -0.503769 0 0 255
0.814528 0.042540 -0.430736 255 0 0
-0.735300 -0.059432 0.352511 204 51 127
0.767664 -0.023797 0.188269 127 127 0
-0.727670 -0.012705 0.488647 204 51 127
-0.012404 -0.041665 0.024486 76 0 153
-0.836848 -0.076142 0.405010 204 51 127
0.378209 0.040396 0.327536 153 76 0
-0.676146 0.040396 0.139813 153 76 0
0.099028 -0.003915 0.490149 127 127 0
-0.509550 0.087577 0.226497 153 76 0
0.323228 0.020841 -0.538433 153 0 76
-0.156081 -0.058408 0.075484 76 0 153
0.566286 -0.056301 0.389647 127 127 0
-0.822394 -0.011274 0.016058 76 153 0
-0.830944 -0.034836 0.488647 204 51 127
0.768691 -0.111172 -0.430118 255 0 0
-0.763134 0.040396 -0.492021 153 76 0
-0.774334 -0.091798 -0.421211 0 0 255
-0.690467 0.013994 -0.404402 76 153 0
0.539504 0.087577 0.296211 153 76 0
-0.800706 -0.146534 -0.469326 0 0 255
0.764180 0.035285 0.488647 153 0 76
-0.744904 -0.174764 -0.537791 0 0 255
0.584839 0.040396 -0.408926 153 76 0
-0.226325 -0.024919 -0.377460 0 255 0
0.699112 0.042540 -0.425330 255 0 0
0.803555 -0.312158 0.433695 153 0 76
0.828796 0.027123 0.431880 153 0 76
0.439296 0.087577 -0.287973 153 76 0
-0.407857 0.087577 -0.143786 153 76 0
-0.623368 0.087577 -0.489272 153 76 0
-0.684644 -0.054389 -0.379186 0 127 127
0.700243 0.040396 -0.216274 153 76 0
0.692660 0.016387 -0.548198 255 0 0
0.461642 0.087577 -0.443734 153 76 0
-0.761026 -0.127114 -0.434747 0 0 255
-0.754763 -0.040678 -0.309067 0 127 127
0.020082 -0.029993 0.289664 76 0 153
0.813263 0.040396 -0.572489 153 76 0
-0.363767 0.040396 0.511987 153 76 0
0.206119 -0.038148 0.402830 0 127 127
0.757826 -0.157739 -0.534102 255 0 0
-0.536661 0.040396 0.484428 153 76 0
0.281939 0.011065 0.471398 153 76 0
-0.812766 -0.327811 0.399429 204 51 127
0.205219 -0.032017 -0.422850 0 255 0
-0.157053 0.087577 -0.531241 153 76 0
-0.716745 0.040396 0.436435 153 76 0
-0.902694 0.041986 0.509872 153 76 0
-0.257805 0.040396 -0.271724 153 76 0
-0.603191 0.087577 -0.435842 153 76 0
0.779783 -0.355139 0.455248 153 0 76
-0.792795 -0.020366 -0.295197 76 153 0
-0.462779 0.087577 -0.455250 153 76 0
-0.734781 -0.111864 0.380622 204 51 127
0.680318 0.041144 0.275615 127 127 0
0.378928 0.087577 -0.077684 153 76 0
0.173896 0.087577 0.436019 153 76 0
-0.794271 0.013356 -0.552888 0 0 255
0.818992 0.087577 -0.099290 153 76 0
-0.140538 0.087577 -0.172167 153 76 0
-0.347705 0.040396 0.503169 153 76 0
0.390846 0.087577 -0.236753 153 76 0
0.672352 0.087577 -0.068985 153 76 0
0.179382 -0.076950 0.360268 153 0 76
-0.493729 -0.031380 -0.509824 153 0 76
-0.083251 -0.058408 0.152998 76 0 153
-0.874453 0.040396 -0.010187 153 76 0
-0.730445 0.040396 0.504461 153 76 0
0.611597 -0.078677 -0.424763 0 255 0
0.084352 0.040396 0.485751 153 76 0
0.258582 0.017756 0.444581 153 76 0
0.782731 0.020269 0.488647 153 0 76
-0.887820 0.040396 -0.319845 153 76 0
0.458690 0.087577 -0.497065 153 76 0
0.145190 0.040396 -0.409797 153 76 0
-0.064174 0.087577 -0.092333 153 76 0
-0.713259 -0.180841 0.431712 204 51 127
0.608606 0.040396 0.063787 153 76 0
0.409224 0.041336 -0.587528 153 76 0
-0.558145 0.040396 0.085932 153 76 0
0.165494 0.026060 -0.508823 153 0 76
0.811167 0.087577 0.032101 153 76 0
-0.003299 -0.076950 0.436917 153 0 76
0.795578 0.040396 0.427131 153 76 0
0.770555 -0.223973 -0.543675 255 0 0
-0.278784 0.087577 -0.189003 153 76 0
0.098441 0.010558 0.471228 76 0 153
-0.517768 0.040396 -0.095245 153 76 0
0.814337 0.028230 0.005477 76 0 153
-0.488486 0.040396 0.034797 153 76 0
0.838049 0.040396 0.518806 153 76 0
-0.396957 0.087577 0.386665 153 76 0
0.205058 -0.075150 0.226026 0 127 127
0.851946 0.040396 0.132535 153 76 0
-0.822394 -0.010385 -0.088361 76 153 0
-0.324067 -0.079833 0.467594 153 76 0
-0.547051 0.040396 0.160223 153 76 0
-0.340558 0.087577 0.419850 153 76 0
-0.822394 0.008755 -0.116890 76 153 0
0.497673 0.040396 -0.130616 153 76 0
-0.730664 -0.116222 0.403216 204 51 127
-0.471180 0.040396 0.131288 153 76 0
0.076211 0.087577 0.348364 153 76 0
-0.339470 0.087577 -0.277608 153 76 0
0.759082 0.087577 0.224814 153 76 0
-0.039883 -0.017586 0.008834 76 153 0
-0.750738 0.040396 0.504378 153 76 0
0.285337 0.087577 -0.185901 153 76 0
0.813707 0.027398 -0.335994 76 0 153
-0.620294 -0.036110 -0.509823 153 0 76
0.138804 0.040396 0.033408 153 76 0
0.166281 0.040396 0.199855 153 76 0
-0.830862 -0.092175 0.437172 204 51 127
-0.794379 0.002837 0.042405 76 153 0
0.410811 0.087577 0.082177 153 76 0
0.828796 0.035055 -0.452859 255 0 0
0.709936 0.040396 -0.383832 153 76 0
0.493838 0.040396 0.493203 153 76 0
0.784815 -0.034941 0.223925 76 0 153
0.440138 0.040396 -0.334468 153 76 0
-0.543669 0.087577 -0.149321 153 76 0
-0.815379 0.033615 -0.417982 76 153 0
-0.286457 0.087577 -0.448792 153 76 0
-0.538402 0.087577 0.022627 153 76 0
0.297525 0.040396 -0.214830 153 76 0
-0.497288 0.040396 0.327384 153 76 0
0.335982 0.040396 -0.157419 153 76 0
0.894487 0.046910 -0.221960 153 76 0
0.774640 -0.065921 -0.281138 0 255 0
-0.205026 0.087577 0.399341 153 76 0
-0.794019 -0.048025 -0.334254 76 153 0
0.473257 0.087577 -0.209096 153 76 0
-0.745372 -0.100704 -0.435279 0 0 255
0.268344 0.040396 0.367907 153 76 0
-0.616507 0.026977 -0.508852 153 0 76
0.485184 -0.024043 0.447375 153 76 0
-0.138533 0.040396 -0.423006 153 76 0
0.445199 0.087577 0.126902 153 76 0
-0.817141 0.087577 0.155398 153 76 0
-0.722022 -0.044170 -0.418149 76 153 0
0.336859 0.014097 0.473195 153 76 0
-0.715736 0.001614 -0.391332 76 153 0
-0.795577 -0.016368 -0.206023 76 153 0
-0.144718 -0.076950 0.414494 153 0 76
0.766328 -0.208487 -0.422974 255 0 0
-0.697555 0.032641 -0.388583 76 153 0
0.025832 0.040396 0.448593 153 76 0
0.465503 -0.035418 -0.538433 153 0 76
0.812231 -0.078163 0.018933 76 0 153
0.496498 -0.037688 0.444581 153 76 0
0.746155 -0.273433 -0.532490 255 0 0
-0.794680 -0.052003 -0.271630 76 153 0
-0.594779 0.087577 0.070070 153 76 0
0.725605 0.026299 -0.418149 76 0 153
-0.293850 -0.016224 0.447111 153 76 0
0.685565 -0.065624 0.473799 153 76 0
-0.149661 0.040396 -0.483461 153 76 0
-0.664072 0.040396 -0.403858 153 76 0
-0.305496 0.040396 0.172187 153 76 0
-0.805442 -0.173200 0.463893 204 51 127
0.539824 0.040396 -0.509360 153 76 0
-0.796085 0.019957 0.274686 76 153 0
0.269082 0.040396 -0.430707 153 76 0
-0.766742 0.029734 -0.412622 76 153 0
-0.391344 0.024884 0.446673 153 76 0
0.579524 0.023732 -0.509270 153 0 76
-0.164911 0.087577 0.019410 153 76 0
-0.298350 0.040396 -0.057895 153 76 0
0.178298 -0.057349 0.113524 76 0 153
-0.770046 0.040396 -0.372422 153 76 0
-0.213271 -0.014177 -0.291063 0 255 0
0.690791 -0.077527 0.433080 153 76 0
-0.674288 0.009047 -0.391237 76 153 0
0.476855 0.087577 0.175357 153 76 0
0.458379 0.087577 0.390931 153 76 0
0.056649 0.040396 0.033480 153 76 0
0.828796 -0.077712 -0.478835 255 0 0
0.604277 0.087577 0.096721 153 76 0
0.782969 -0.117661 0.458158 153 0 76
-0.031634 -0.058408 0.086442 76 0 153
0.475125 -0.023687 -0.509280 153 0 76
0.206759 -0.005591 0.235641 0 127 127
0.760220 0.040396 -0.207877 153 76 0
0.875764 0.040396 0.133354 153 76 0
0.828368 0.087577 -0.458750 153 76 0
0.779631 0.040396 0.373275 153 76 0
0.069854 0.040396 0.451263 153 76 0
-0.673700 -0.075546 -0.409048 153 0 76
-0.226325 -0.032013 0.162680 0 255 0
-0.033719 0.040396 0.281593 153 76 0
-0.312016 0.087577 -0.250739 153 76 0
0.348064 0.040396 0.007367 153 76 0
0.445594 0.052488 -0.578780 153 76 0
-0.729319 -0.113124 -0.466577 0 0 255
0.212074 -0.010360 -0.313552 0 255 0
0.224973 0.087577 0.145750 153 76 0
-0.226325 -0.016081 0.212681 0 255 0
-0.731625 -0.254759 0.457383 204 51 127
0.757140 -0.131943 0.373945 153 0 76
0.300431 -0.051534 0.444581 153 76 0
0.457238 0.040396 -0.202892 153 76 0
0.330474 -0.020372 0.446794 153 76 0
-0.775195 -0.078677 -0.263192 0 127 127
-0.281989 0.040396 0.354296 153 76 0
0.392952 0.081514 -0.537454 153 76 0
-0.630164 0.087577 -0.143514 153 76 0
-0.333174 0.040396 0.192570 153 76 0
0.665791 -0.062762 -0.389987 0 255 0
0.297689 0.040396 -0.139601 153 76 0
0.674845 0.040396 0.109765 153 76 0
-0.797413 -0.017836 0.352511 204 51 127
-0.296156 0.040396 -0.435681 153 76 0
-0.155815 -0.058753 0.485436 127 127 0
0.411523 0.040396 -0.160278 153 76 0
-0.362637 0.040396 -0.178255 153 76 0
0.667101 0.002021 0.471464 153 76 0
-0.822394 -0.027202 -0.010453 76 153 0
0.158977 0.087577 0.180505 153 76 0
0.190615 0.022692 -0.538433 153 0 76
-0.083175 0.087577 -0.377357 153 76 0
-0.190268 0.053676 -0.571883 153 76 0
-0.261108 0.040396 0.115136 153 76 0
0.494742 0.087577 -0.418771 153 76 0
-0.138378 0.087577 -0.333442 153 76 0
0.052425 0.040396 -0.259064 153 76 0
0.708977 0.087577 0.414264 153 76 0
0.166989 0.040396 0.285359 153 76 0
-0.302120 0.014389 0.446735 153 76 0
0.850493 0.040396 -0.254005 153 76 0
-0.701369 0.040396 0.065996 153 76 0
0.482615 0.040396 0.181266 153 76 0
-0.513904 -0.004982 -0.538433 153 0 76
-0.751266 0.082300 -0.537073 153 76 0
0.243718 -0.055798 -0.508823 153 0 76
-0.138929 0.087577 -0.505490 153 76 0
0.205219 -0.033360 -0.074010 0 255 0
0.197977 0.007907 0.012983 76 153 0
0.381885 0.087577 -0.004430 153 76 0
-0.673453 -0.040071 -0.390377 0 127 127
-0.280479 0.040396 -0.301361 153 76 0
0.048747 0.040396 0.116352 153 76 0
-0.232670 0.040396 -0.526498 153 76 0
0.591737 0.086447 -0.536613 153 76 0
-0.412308 0.087577 -0.362370 153 76 0
0.894642 0.046311 0.262054 153 76 0
-0.295598 0.087577 0.470844 153 76 0
0.685714 -0.080042 -0.398261 76 0 153
-0.017933 0.040396 0.144286 153 76 0
0.836807 0.040396 0.106672 153 76 0
-0.343821 0.040115 0.472875 153 76 0
-0.391279 0.087577 -0.360661 153 76 0
0.089510 0.040396 0.440190 153 76 0
0.615932 0.068132 0.482360 153 76 0
0.828796 -0.045999 0.433277 153 0 76
0.656757 -0.000704 0.448282 153 76 0
0.664466 -0.026550 -0.399720 153 0 76
-0.554118 0.052434 0.514888 153 76 0
0.444058 0.040396 0.478727 153 76 0
0.183548 0.087577 0.089246 153 76 0
0.784731 -0.021143 0.129832 76 0 153
0.050973 0.087577 0.374471 153 76 0
0.205219 -0.026616 -0.091026 0 255 0
0.889778 0.050024 -0.390997 153 76 0
0.800205 0.043930 0.234162 76 0 153
-0.664408 0.040396 0.310089 153 76 0
-0.012448 0.087577 0.156261 153 76 0
0.220138 -0.036305 0.388563 0 255 0
-0.795573 0.013896 0.055562 76 153 0
-0.583853 0.087577 -0.260350 153 76 0
0.650916 -0.006582 0.340621 127 127 0
-0.596760 0.040396 -0.531750 153 76 0
-0.312695 -0.061652 0.446328 153 76 0
0.381993 0.053224 0.509595 153 76 0
0.258182 0.040396 0.458295 153 76 0
-0.321423 0.087577 0.049610 153 76 0
-0.822302 -0.066759 -0.151859 76 153 0
0.798390 0.006271 0.352511 153 0 76
0.868378 0.040396 -0.055632 153 76 0
-0.471260 0.040396 0.239286 153 76 0
-0.827765 0.087577 0.228029 153 76 0
-0.737314 -0.288204 -0.517693 0 0 255
-0.601042 0.071856 0.479155 153 76 0
-0.182659 0.040396 0.046484 153 76 0
0.014766 -0.075982 0.485992 153 0 76
0.630855 -0.078677 -0.405587 0 255 0
0.814342 0.018577 0.300631 76 0 153
-0.724365 -0.203972 0.461215 204 51 127
0.616408 0.054736 0.503830 153 76 0
-0.738051 0.028267 -0.325779 0 127 127
0.054928 0.087577 0.003950 153 76 0
-0.337073 0.040396 -0.179583 153 76 0
-0.784348 -0.203873 -0.424160 0 0 255
-0.061284 -0.058408 0.201312 76 0 153
-0.015169 0.087577 -0.338303 153 76 0
0.743353 0.029233 -0.312425 0 255 0
-0.778816 -0.105900 -0.430409 0 0 255
-0.770080 0.014531 0.488647 204 51 127
0.120023 -0.076950 0.338453 153 0 76
0.388944 0.024525 0.444581 153 76 0
0.205379 0.006465 0.100060 76 0 153
0.247348 0.087577 -0.293244 153 76 0
0.206786 -0.044317 0.251327 0 127 127
0.342584 0.042621 0.523287 153 76 0
-0.269334 0.087577 -0.419655 153 76 0
-0.556003 0.087577 -0.365790 153 76 0
0.172206 0.040396 0.434288 153 76 0
0.756537 0.040396 -0.068861 153 76 0
-0.822394 -0.007216 -0.053616 76 153 0
-0.033673 0.040396 -0.460737 153 76 0
-0.824002 -0.078233 -0.552888 0 0 255
-0.881125 0.055427 -0.061998 153 76 0
-0.339067 0.087515 -0.536613 153 76 0
-0.025268 0.040396 0.119080 153 76 0
0.213321 -0.043928 -0.324740 0 255 0
0.765502 0.040396 0.037875 153 76 0
-0.700712 -0.086470 0.374130 204 51 127
-0.788202 -0.146514 0.451851 204 51 127
0.712188 0.022319 0.324297 76 0 153
-0.200431 0.043712 -0.531245 153 0 76
0.213076 -0.010360 -0.451890 0 255 0
-0.888667 0.053302 0.236020 153 76 0
-0.215644 -0.024058 0.445978 0 255 0
-0.773524 0.040396 0.504310 153 76 0
-0.674938 0.040396 -0.565109 153 76 0
-0.510227 0.040396 0.374584 153 76 0
0.785696 -0.345690 0.389819 153 0 76
0.215933 0.087577 0.210925 153 76 0
-0.043385 0.087577 -0.123449 153 76 0
-0.822394 -0.051104 -0.327829 76 153 0
0.809991 -0.231324 -0.459326 255 0 0
-0.485055 0.040904 0.472303 153 76 0
0.267161 0.087577 -0.527992 153 76 0
-0.401533 0.040396 -0.032612 153 76 0
-0.218823 0.040396 0.043803 153 76 0
-0.561461 0.087577 0.115561 153 76 0
0.478986 -0.069542 0.444780 153 76 0
0.554933 0.014356 -0.538433 153 0 76
-0.472803 0.040396 -0.104249 153 76 0
-0.001098 0.087577 0.446498 153 76 0
-0.785793 0.087577 0.165795 153 76 0
-0.453997 0.087577 0.010788 153 76 0
0.791209 -0.324837 0.381447 153 0 76
-0.235078 0.040396 -0.354698 153 76 0
0.693952 -0.090963 0.420884 153 0 76
-0.677054 0.040396 0.211132 153 76 0
0.248632 0.020741 -0.508823 153 0 76
-0.095661 0.040396 -0.556002 153 76 0
0.715380 -0.272752 -0.470796 255 0 0
-0.230763 0.087577 -0.338131 153 76 0
0.379046 0.087577 0.307495 153 76 0
0.664446 0.021902 -0.409275 153 0 76
-0.370213 -0.068313 0.444743 153 76 0
0.298458 0.040396 0.499098 153 76 0
-0.731863 -0.076353 0.325251 76 153 0
0.154124 0.087577 0.133722 153 76 0
-0.897728 0.040396 -0.469001 153 76 0
-0.268793 0.061838 0.489623 153 76 0
0.502457 0.040396 -0.403427 153 76 0
-0.832839 0.087577 -0.335339 153 76 0
0.877029 0.040396 -0.488669 153 76 0
0.811607 -0.078643 0.313273 76 0 153
-0.730065 0.019590 0.233920 127 0 127
-0.752294 -0.212375 -0.544250 0 0 255
0.256962 -0.031448 0.447206 153 76 0
-0.728980 -0.322804 -0.459821 0 0 255
0.205219 -0.024234 -0.023986 0 255 0
-0.694338 -0.069559 0.324466 153 76 0
-0.652421 0.040396 -0.321506 153 76 0
-0.331896 0.087577 -0.224058 153 76 0
0.357819 0.087577 0.398562 153 76 0
0.795332 -0.093472 -0.540981 255 0 0
0.511100 0.040396 -0.434513 153 76 0
-0.029023 0.040396 -0.487861 153 76 0
0.146667 0.040396 0.303813 153 76 0
0.358780 0.040396 0.312797 153 76 0
0.695193 0.087577 -0.462378 153 76 0
0.312977 0.040396 -0.298613 153 76 0
0.425512 0.087577 0.059346 153 76 0
-0.672942 0.028476 -0.393400 76 153 0
0.647829 0.026290 0.471458 153 76 0
-0.805728 0.087577 0.314831 153 76 0
0.866087 0.058656 0.202557 153 76 0
-0.566146 0.087577 -0.455066 153 76 0
-0.416840 0.087577 -0.042993 153 76 0
-0.183608 0.087577 0.153259 153 76 0
0.833392 0.040396 0.496947 153 76 0
-0.175328 0.087577 -0.312723 153 76 0
0.331750 0.040396 -0.290461 153 76 0
-0.138244 0.040396 0.292311 153 76 0
-0.234507 0.040396 0.442484 153 76 0
-0.555207 0.069666 0.481020 153 76 0
0.493141 0.087577 -0.024527 153 76 0
0.022732 0.040396 -0.328534 153 76 0
0.477129 0.087577 0.336446 153 76 0
0.814342 0.016652 -0.118067 76 0 153
0.167670 -0.076950 0.122772 153 0 76
-0.747165 0.087577 -0.517046 153 76 0
0.708089 0.040396 0.292674 153 76 0
0.628898 -0.042485 0.327035 127 127 0
0.796717 -0.107876 -0.444578 255 0 0
-0.794180 -0.005381 0.198037 127 0 127
0.152789 0.040396 -0.083553 153 76 0
-0.794169 0.041430 0.169816 127 0 127
-0.182706 -0.055894 0.311980 76 0 153
0.062629 0.087577 -0.022869 153 76 0
0.701145 0.087577 0.348299 153 76 0
-0.702231 0.087577 -0.526245 153 76 0
0.661291 0.040396 0.256005 153 76 0
-0.468219 0.040396 0.098609 153 76 0
0.605373 -0.060320 0.386164 127 127 0
0.696623 -0.033462 0.359901 76 0 153
0.656819 0.040396 -0.246764 153 76 0
-0.819782 0.004974 -0.027977 76 153 0
0.176177 -0.025878 -0.538433 153 0 76
0.757626 -0.078677 0.215049 127 127 0
-0.244214 0.018405 0.444581 153 76 0
0.865503 0.040396 -0.110134 153 76 0
0.099728 0.057789 -0.560578 153 76 0
0.117023 -0.076033 0.448012 153 76 0
0.074392 -0.058541 0.141639 76 0 153
-0.174888 0.040368 0.472818 153 76 0
-0.603457 -0.073712 0.360528 127 0 127
0.579112 0.040396 0.225179 153 76 0
-0.231519 -0.066044 0.470088 153 76 0
0.064053 0.087577 -0.479748 153 76 0
-0.834672 0.087577 0.426198 153 76 0
-0.521486 0.087577 0.306001 153 76 0
-0.158837 -0.020687 0.471228 76 0 153
0.835907 0.040396 -0.496505 153 76 0
-0.098030 -0.051291 -0.508823 153 0 76
0.725092 -0.092447 -0.423873 255 0 0
-0.456440 0.027183 0.446673 153 76 0
0.814342 0.025431 0.221695 76 0 153
-0.818002 -0.259204 -0.491286 0 0 255
-0.208015 -0.047072 0.040142 127 0 127
-0.404216 0.087577 0.076674 153 76 0
0.099363 0.055675 0.501050 153 76 0
-0.551017 0.040396 -0.106597 153 76 0
0.452732 -0.054498 0.471421 153 76 0
-0.814973 -0.063480 -0.059102 76 153 0
0.692660 -0.051060 -0.435502 255 0 0
0.064741 0.023581 0.455863 153 76 0
-0.301237 0.087577 0.225366 153 76 0
-0.547950 -0.028504 -0.509824 153 0 76
0.470240 0.040396 0.132910 153 76 0
0.655722 -0.030840 -0.364452 0 255 0
-0.548175 -0.002185 -0.508901 153 0 76
-0.339465 0.040396 0.224060 153 76 0
0.002863 0.035766 0.472753 76 0 153
0.864300 0.059641 0.421433 153 76 0
0.064041 0.040396 0.260919 153 76 0
-0.087883 0.087577 -0.092172 153 76 0
-0.819718 0.042540 0.463942 204 51 127
-0.872773 0.059394 -0.089278 153 76 0
-0.501103 0.043560 -0.526803 153 0 76
0.113590 0.087577 0.304090 153 76 0
-0.758619 -0.096393 0.410233 204 51 127
0.585952 0.040396 0.076671 153 76 0
-0.758089 0.087577 0.033274 153 76 0
0.445198 0.087577 0.027306 153 76 0
0.445337 0.087577 -0.516854 153 76 0
-0.156376 0.087577 0.351653 153 76 0
-0.017044 0.040396 0.162359 153 76 0
0.102380 0.040396 0.394969 153 76 0
-0.892545 0.040396 -0.030627 153 76 0
-0.796934 0.043536 -0.098263 76 153 0
0.158665 -0.059408 0.110016 76 0 153
-0.803294 0.043587 0.301670 76 153 0
0.155983 -0.034947 0.008834 76 153 0
-0.317756 0.087577 -0.281883 153 76 0
-0.595436 0.087577 -0.490420 153 76 0
-0.396992 0.040396 0.401278 153 76 0
-0.483288 0.018607 0.446370 153 76 0
0.253707 0.087577 -0.317446 153 76 0
-0.789453 0.042540 0.422031 204 51 127
0.540018 0.087577 0.095990 153 76 0
0.362415 0.040396 0.433014 153 76 0
-0.711078 -0.078677 0.271077 127 0 127
0.725039 -0.055381 0.488647 153 0 76
0.650708 0.040396 -0.284154 153 76 0
-0.783105 -0.096393 0.421368 204 51 127
0.733362 0.040396 0.424202 153 76 0
-0.796680 -0.314271 -0.445462 0 0 255
0.329022 0.087577 0.205624 153 76 0
0.817923 0.087577 -0.046599 153 76 0
-0.898249 0.049020 0.089554 153 76 0
0.565155 -0.023944 0.390778 127 127 0
-0.777797 -0.049254 0.198895 127 0 127
0.690087 -0.018933 -0.536823 153 0 76
-0.563620 0.040396 0.131158 153 76 0
-0.614630 0.087577 0.369359 153 76 0
0.078666 0.087577 0.261198 153 76 0
0.846265 0.078222 -0.494137 153 76 0
-0.200525 0.087577 0.070454 153 76 0
0.576138 0.040396 0.299788 153 76 0
0.256402 0.087577 0.219429 153 76 0
0.451107 0.040396 0.144007 153 76 0
0.150120 0.040396 -0.568094 153 76 0
0.808299 0.040396 0.507184 153 76 0
-0.214170 -0.044259 -0.058459 0 255 0
-0.785749 0.042540 -0.443424 0 0 255
-0.598468 0.040396 -0.240820 153 76 0
-0.226325 -0.017042 -0.233363 0 255 0
-0.841366 0.040396 -0.128797 153 76 0
-0.003355 -0.044761 0.276334 76 0 153
0.569295 0.087577 -0.130080 153 76 0
-0.902694 0.046718 -0.064123 153 76 0
-0.039010 0.087577 0.196465 153 76 0
0.483498 0.087577 -0.275838 153 76 0
-0.432202 0.087577 0.196187 153 76 0
-0.581111 0.040396 -0.108480 153 76 0
-0.241064 0.087577 0.412335 153 76 0
-0.154404 -0.075869 0.486383 153 0 76
-0.285039 -0.048924 0.474192 153 76 0
-0.574843 0.040396 -0.505287 153 76 0
0.477680 0.040396 0.441332 153 76 0
-0.208015 -0.026705 0.255901 127 0 127
0.421127 0.087577 -0.028048 153 76 0
-0.715577 -0.193746 0.395280 204 51 127
0.798780 -0.340325 0.414893 153 0 76
0.760178 0.040396 -0.379313 153 76 0
0.795181 -0.146697 0.428455 153 0 76
0.082433 0.087577 0.428567 153 76 0
-0.655227 -0.003235 -0.372999 0 127 127
-0.112193 0.087577 -0.534640 153 76 0
0.728576 -0.142853 -0.470409 255 0 0
0.509376 0.087577 0.154345 153 76 0
-0.878464 0.056531 0.453811 153 76 0
-0.325803 0.087577 0.334309 153 76 0
-0.626760 -0.073399 -0.401466 0 127 127
0.724576 0.087577 0.448403 153 76 0
0.680251 0.040396 -0.163285 153 76 0
-0.731319 -0.324872 -0.516241 0 0 255
0.603845 0.040396 0.104258 153 76 0
-0.380249 -0.061300 -0.508883 153 0 76
-0.683528 -0.017660 0.459175 153 76 0
-0.167188 -0.076950 0.043583 153 0 76
-0.822394 0.019456 0.173737 76 153 0
-0.672638 -0.044185 0.395652 153 76 0
0.291088 0.041517 0.471005 153 76 0
-0.833324 -0.012752 0.352511 204 51 127
-0.256029 0.040396 -0.245324 153 76 0
-0.822394 0.026215 -0.308282 76 153 0
0.403185 0.087577 -0.145452 153 76 0
0.213510 -0.043928 -0.046703 0 255 0
0.716154 0.040396 0.029398 153 76 0
-0.158535 0.040396 -0.041484 153 76 0
-0.740604 -0.231543 -0.434360 0 0 255
-0.822394 -0.033579 -0.353929 76 153 0
-0.165867 0.087577 0.385147 153 76 0
-0.727052 0.040396 -0.490131 153 76 0
0.106865 -0.076950 0.053208 153 0 76
-0.599048 0.040396 -0.011645 153 76 0
-0.608750 -0.022803 -0.455080 0 127 127
-0.717155 0.087577 -0.425354 153 76 0
-0.700712 0.024113 -0.420439 0 0 255
0.834365 0.087577 -0.504419 153 76 0
0.722404 -0.309886 0.441162 153 0 76
0.828796 -0.017611 -0.453868 255 0 0
0.477474 0.040396 -0.124856 153 76 0
-0.666598 0.001904 -0.361628 0 127 127
-0.779573 -0.014830 -0.552888 0 0 255
-0.032451 -0.058408 0.125516 76 0 153
-0.260824 0.087577 -0.189979 153 76 0
0.579707 0.087577 -0.357969 153 76 0
-0.545506 0.087577 -0.076292 153 76 0
0.048209 -0.075003 0.470103 153 76 0
0.277063 0.018785 0.446405 153 76 0
-0.850132 0.087577 0.010329 153 76 0
0.474320 0.040396 0.358804 153 76 0
-0.396136 -0.008154 0.471398 153 76 0
0.149064 -0.058864 0.067989 76 0 153
-0.814511 -0.086574 0.488647 204 51 127
-0.637890 0.040396 -0.132545 153 76 0
-0.806283 -0.095995 -0.481786 0 0 255
-0.828239 0.018175 -0.552888 0 0 255
-0.370091 0.087577 -0.208798 153 76 0
-0.018770 0.087577 -0.488812 153 76 0
0.283900 0.040396 -0.375931 153 76 0
0.425572 0.087577 0.179984 153 76 0
-0.006181 0.087577 -0.155961 153 76 0
0.466516 0.042060 0.470044 153 76 0
0.856149 0.040396 -0.068948 153 76 0
-0.892262 0.052721 -0.516285 153 76 0
-0.858848 0.071473 -0.357226 153 76 0
0.157753 0.087577 -0.258227 153 76 0
0.360515 -0.035273 -0.538433 153 0 76
-0.797931 -0.066138 -0.096761 76 153 0
-0.809372 0.043603 -0.061772 76 153 0
0.042116 0.040396 0.152173 153 76 0
-0.085070 0.040396 0.402518 153 76 0
0.610878 0.040396 -0.377825 153 76 0
-0.206380 0.004504 -0.538433 153 0 76
-0.661625 -0.005050 0.302360 127 0 127
0.329874 0.040396 0.179753 153 76 0
-0.343905 0.040396 -0.552410 153 76 0
-0.285387 0.040396 -0.259526 153 76 0
0.591217 0.040396 -0.215336 153 76 0
-0.175172 -0.057556 0.135122 76 0 153
0.260304 0.040396 -0.572569 153 76 0
-0.673563 0.028432 0.451510 153 76 0
0.590869 0.040396 -0.468683 153 76 0
-0.380944 0.040396 -0.171866 153 76 0
0.502952 0.087577 -0.086101 153 76 0
-0.890967 0.040396 0.119938 153 76 0
-0.573504 0.040396 0.381793 153 76 0
-0.512119 0.087577 -0.376036 153 76 0
-0.657404 0.087577 0.165950 153 76 0
0.478467 0.087577 0.280306 153 76 0
-0.530759 -0.048525 0.473192 153 76 0
-0.298682 0.087577 -0.127883 153 76 0
-0.814331 -0.122716 0.415065 204 51 127
-0.401211 0.040396 0.177581 153 76 0
0.081267 0.040396 -0.190417 153 76 0
-0.434634 0.040396 0.488468 153 76 0
0.816085 -0.224750 -0.491845 255 0 0
0.155893 0.087577 -0.321227 153 76 0
0.205721 0.005008 0.397608 76 0 153
0.582175 -0.072324 0.463442 153 76 0
-0.165072 -0.076950 0.409677 153 0 76
-0.133451 -0.076950 0.056587 153 0 76
-0.550865 -0.002841 0.413121 127 0 127
0.315121 0.040396 -0.318720 153 76 0
0.762024 -0.079987 -0.403146 76 0 153
-0.228383 0.040396 -0.052367 153 76 0
-0.446616 0.040396 -0.445659 153 76 0
-0.784755 0.042540 0.212905 127 0 127
0.725165 -0.004871 -0.552888 255 0 0
0.557999 -0.079442 -0.516412 153 0 76
-0.369389 0.017442 0.473512 153 76 0
-0.098018 0.087577 -0.387369 153 76 0
0.843727 0.084720 0.257590 153 76 0
0.807408 0.087577 0.255799 153 76 0
0.794158 -0.342580 -0.464227 255 0 0
0.781571 -0.067045 -0.418107 76 0 153
0.728771 -0.182593 -0.535086 255 0 0
-0.539751 0.040396 -0.162368 153 76 0
0.421380 0.087577 0.309311 153 76 0
-0.290480 -0.006253 0.471398 153 76 0
0.813903 -0.011929 0.202758 76 0 153
0.821933 0.087577 -0.077824 153 76 0
0.712540 0.040396 -0.176187 153 76 0
0.048818 -0.058408 0.115985 76 0 153
0.736410 0.087577 -0.062593 153 76 0
0.719320 -0.160967 0.448743 153 0 76
0.389908 -0.047223 -0.538433 153 0 76
-0.384029 0.040396 -0.061807 153 76 0
-0.547532 -0.026310 0.416454 127 0 127
0.646590 -0.078677 0.314315 127 127 0
-0.740047 -0.122758 0.458812 204 51 127
0.753841 0.040396 -0.023998 153 76 0
0.305385 0.040396 -0.586916 153 76 0
-0.196353 0.087577 0.300978 153 76 0
0.334072 0.040396 0.137434 153 76 0
-0.226325 -0.012684 -0.408390 0 255 0
0.559708 -0.041633 0.431829 127 127 0
-0.892448 0.040396 0.255912 153 76 0
-0.462767 0.087577 -0.129413 153 76 0
-0.289873 0.087577 -0.302377 153 76 0
-0.048032 0.087577 0.102383 153 76 0
0.773289 0.040396 0.448770 153 76 0
0.220138 -0.028287 -0.043934 0 255 0
-0.889599 0.053091 -0.309073 153 76 0
0.710410 -0.105441 0.405811 153 0 76
-0.816042 0.043707 0.248543 76 153 0
0.651598 -0.068585 0.474150 153 76 0
0.489094 0.087577 0.374774 153 76 0
-0.135718 0.040396 0.115005 153 76 0
0.856209 0.040396 -0.144078 153 76 0
0.409891 0.087577 -0.189165 153 76 0
0.814271 -0.071757 -0.237249 76 0 153
0.108528 -0.076950 0.141440 153 0 76
-0.689873 0.040396 0.248243 153 76 0
0.721789 -0.336614 0.409491 153 0 76
0.640667 0.009518 0.315267 127 127 0
0.724578 -0.138833 0.403733 153 0 76
-0.060522 -0.059121 0.262056 76 0 153
-0.831044 0.087577 -0.414586 153 76 0
-0.662412 0.040396 -0.542817 153 76 0
-0.830579 0.087577 -0.062043 153 76 0
0.768257 0.040396 0.239690 153 76 0
0.364377 0.040396 -0.007929 153 76 0
0.355358 0.040396 0.123070 153 76 0
-0.218301 0.087577 0.291340 153 76 0
-0.434075 0.040396 -0.235885 153 76 0
-0.340350 0.040396 0.321950 153 76 0
0.595690 -0.052572 -0.460089 0 255 0
-0.029541 0.087577 0.234940 153 76 0
0.508739 0.040396 0.132656 153 76 0
0.741601 -0.096393 0.465305 153 0 76
0.750616 -0.242447 0.365180 153 0 76
-0.618471 0.022928 0.444581 153 76 0
-0.021042 0.029366 -0.538416 153 0 76
0.741252 -0.305197 -0.523791 255 0 0
0.206289 -0.070531 0.480590 153 0 76
0.206453 -0.025565 0.082956 0 127 127
0.665652 0.054314 -0.569359 153 76 0
-0.128770 0.087577 0.411792 153 76 0
0.362368 0.087577 -0.126341 153 76 0
0.296952 -0.069962 -0.508892 153 0 76
0.391326 0.040904 0.471827 153 76 0
0.736334 -0.140844 0.449208 153 0 76
0.817508 0.040396 0.141833 153 76 0
0.205631 0.040396 -0.355892 153 76 0
-0.417904 0.040396 0.226176 153 76 0
-0.870082 0.040396 0.304998 153 76 0
-0.376928 0.040396 0.227953 153 76 0
-0.278011 0.040396 -0.368940 153 76 0
-0.115904 -0.058408 0.166899 76 0 153
-0.061052 0.087577 0.256001 153 76 0
0.121174 0.087577 -0.270880 153 76 0
0.712777 0.054193 0.505488 153 76 0
0.692660 -0.058286 -0.470966 255 0 0
0.167019 -0.014630 -0.509157 153 0 76
0.049692 0.087577 0.109902 153 76 0
0.821180 0.040396 0.277732 153 76 0
-0.822394 -0.020626 0.241607 76 153 0
-0.099122 0.087577 0.354201 153 76 0
-0.473124 -0.065111 -0.509092 153 0 76
-0.795809 0.087577 -0.024469 153 76 0
-0.798051 0.028250 -0.139362 76 153 0
0.805855 0.028843 0.488647 153 0 76
0.205219 -0.035150 -0.483185 0 255 0
-0.848023 0.087577 0.257048 153 76 0
-0.779462 0.087577 -0.160253 153 76 0
-0.420283 0.040396 -0.079569 153 76 0
-0.162563 0.023436 0.461630 153 76 0
0.680060 0.087577 0.348508 153 76 0
-0.863054 0.040396 0.259395 153 76 0
-0.023068 0.040396 -0.571789 153 76 0
-0.754583 -0.008661 0.245006 127 0 127
-0.287061 0.010676 -0.508823 153 0 76
-0.222059 -0.012225 0.311948 0 255 0
-0.193255 -0.076943 0.367430 153 0 76
0.206407 -0.021033 0.390755 0 127 127
0.651478 0.087577 -0.333317 153 76 0
-0.648893 0.087577 -0.519802 153 76 0
-0.213271 -0.015960 -0.347600 0 255 0
-0.407619 0.014140 0.444581 153 76 0
0.641329 0.040396 -0.013351 153 76 0
-0.616858 -0.027481 0.347127 127 0 127
-0.188313 0.056675 0.498723 153 76 0
-0.591084 -0.063760 0.471043 153 76 0
0.106190 0.087577 -0.047307 153 76 0
0.270325 0.087577 -0.137416 153 76 0
0.264639 0.087577 0.019247 153 76 0
0.830487 0.040396 0.086828 153 76 0
-0.820600 -0.037185 -0.379364 76 153 0
0.172359 -0.080043 -0.526491 153 0 76
0.761804 -0.096393 0.399083 153 0 76
0.699034 -0.054145 -0.356744 0 255 0
-0.120226 -0.050364 0.273042 76 0 153
-0.511838 0.087577 0.158522 153 76 0
0.362839 0.040396 0.145621 153 76 0
-0.004291 -0.076950 0.175905 153 0 76
-0.509298 0.017178 0.446334 153 76 0
-0.819603 -0.028809 0.102444 76 153 0
-0.136267 0.087577 0.015154 153 76 0
-0.700712 0.006918 -0.456351 0 0 255
-0.732026 0.042540 -0.460802 0 0 255
-0.183971 0.040396 0.270435 153 76 0
0.645422 -0.000539 -0.374752 0 255 0
0.230567 0.040396 -0.054423 153 76 0
-0.585528 0.087577 0.117265 153 76 0
0.275602 0.040396 -0.330191 153 76 0
-0.218071 0.040396 0.187378 153 76 0
0.225021 0.087577 -0.060444 153 76 0
-0.856443 0.040396 -0.230079 153 76 0
0.715942 0.028769 -0.304232 0 255 0
0.726776 -0.061812 0.229158 127 127 0
-0.578374 0.040396 0.316318 153 76 0
0.791709 0.087577 0.070944 153 76 0
0.299353 -0.068746 0.473389 153 76 0
0.065125 0.087577 -0.054148 153 76 0
-0.803923 0.036714 -0.381947 76 153 0
0.688963 -0.056566 0.302574 127 127 0
-0.213271 -0.025467 0.106550 0 255 0
0.638240 0.040396 -0.479147 153 76 0
0.533280 -0.043478 -0.492796 0 255 0
0.057653 0.040396 -0.323138 153 76 0
-0.664696 -0.074003 0.443452 153 76 0
0.398919 0.054412 0.504818 153 76 0
-0.252481 0.040396 -0.444348 153 76 0
-0.793417 -0.039404 -0.241143 76 153 0
0.615864 0.087577 -0.114663 153 76 0
-0.187283 -0.051357 0.449230 76 0 153
-0.395483 0.043257 0.461842 153 76 0
-0.802472 -0.074185 -0.128834 76 153 0
0.668813 0.087577 -0.472543 153 76 0
-0.836848 -0.045890 -0.477033 0 0 255
-0.262684 0.040396 0.506890 153 76 0
0.454760 0.004576 0.473192 153 76 0
-0.097943 0.054846 0.503495 153 76 0
-0.217209 0.040396 -0.553054 153 76 0
0.690898 0.023707 -0.388610 76 0 153
0.838430 0.087577 -0.021681 153 76 0
0.844991 0.080637 0.141550 153 76 0
0.311409 0.040396 -0.384487 153 76 0
-0.732107 0.087577 0.003681 153 76 0
0.038780 0.040396 -0.584591 153 76 0
0.049329 -0.055863 0.456290 76 0 153
-0.822394 -0.042128 0.230980 76 153 0
-0.578852 0.040396 0.189135 153 76 0
0.219290 -0.010360 0.359668 0 255 0
-0.491230 0.087577 0.253199 153 76 0
-0.223910 0.087577 -0.008034 153 76 0
0.828223 -0.056582 0.352511 153 0 76
0.348128 0.040396 0.376574 153 76 0
0.047099 -0.059044 0.241315 76 0 153
0.007835 0.087577 -0.000313 153 76 0
0.625667 0.040396 -0.223359 153 76 0
-0.147427 0.040396 -0.073967 153 76 0
0.705240 -0.060278 -0.418074 76 0 153
0.550410 0.040396 -0.292469 153 76 0
0.156749 0.087577 0.308341 153 76 0
-0.699924 -0.020185 -0.363905 0 127 127
-0.770255 0.042540 -0.280874 0 127 127
-0.075124 0.018391 -0.508823 153 0 76
-0.774707 -0.131691 0.373677 204 51 127
-0.803348 -0.176943 0.374152 204 51 127
0.171841 0.087577 -0.163997 153 76 0
0.768858 -0.260884 0.472552 153 0 76
-0.834149 0.040396 -0.217126 153 76 0
-0.373991 0.040396 -0.581353 153 76 0
0.432712 0.040396 -0.224564 153 76 0
-0.025564 -0.058408 0.340981 76 0 153
-0.326046 0.040396 -0.461958 153 76 0
-0.711008 -0.190019 -0.479934 0 0 255
0.814342 -0.043330 -0.089762 76 0 153
-0.763277 -0.310792 -0.438893 0 0 255
-0.335149 0.040396 0.289710 153 76 0
0.594557 -0.048858 -0.538433 153 0 76
-0.248292 0.063684 0.487255 153 76 0
0.673368 -0.005668 -0.346807 0 255 0
0.704625 -0.221735 -0.479775 255 0 0
-0.020205 0.040396 0.050814 153 76 0
0.767956 0.040396 -0.174273 153 76 0
-0.738763 -0.007515 -0.418149 76 153 0
0.781605 -0.115063 -0.523512 255 0 0
-0.395766 0.040396 -0.435686 153 76 0
-0.326946 0.087577 -0.171009 153 76 0
-0.715279 0.042540 0.355687 204 51 127
0.555996 0.087577 0.415942 153 76 0
-0.584857 -0.023971 -0.443370 0 127 127
0.789575 -0.168238 -0.437259 255 0 0
-0.822376 0.031529 0.335461 76 153 0
0.369304 0.040396 -0.338386 153 76 0
0.761321 0.087577 -0.466905 153 76 0
0.437339 0.040396 -0.464434 153 76 0
0.593838 0.087577 -0.382657 153 76 0
-0.264608 0.087577 0.111289 153 76 0
0.583813 0.087577 -0.271451 153 76 0
0.771137 0.040396 0.131039 153 76 0
-0.135498 0.087577 0.065911 153 76 0
0.377444 0.087577 0.371305 153 76 0
0.577735 0.087577 -0.465531 153 76 0
-0.494362 0.087577 -0.031854 153 76 0
-0.752941 -0.165986 -0.431852 0 0 255
-0.036053 -0.051518 0.296751 76 0 153
0.682159 -0.034068 -0.538223 153 0 76
-0.484415 0.087353 -0.536613 153 76 0
-0.801606 0.033556 -0.293831 76 153 0
-0.494329 0.087577 -0.133069 153 76 0
0.134422 0.040396 -0.506635 153 76 0
0.821230 0.064153 -0.550908 153 76 0
-0.646342 0.040396 0.129471 153 76 0
0.885824 0.052497 -0.069639 153 76 0
-0.397365 0.040396 -0.566758 153 76 0
0.396183 -0.078369 -0.535104 153 0 76
0.214418 -0.043928 -0.117620 0 255 0
-0.820062 -0.006594 -0.183461 76 153 0
-0.297530 0.087577 -0.149057 153 76 0
-0.604977 -0.042776 -0.458854 0 127 127
-0.684725 -0.045448 0.461764 153 76 0
0.743960 0.087577 0.286674 153 76 0
-0.261805 0.040396 -0.511627 153 76 0
0.371584 0.087577 0.144221 153 76 0
0.763025 -0.257046 -0.538413 255 0 0
0.693374 0.042540 -0.444788 255 0 0
0.369111 0.040396 0.507968 153 76 0
0.828796 -0.058671 0.385486 153 0 76
-0.371033 0.087577 0.195971 153 76 0
-0.412309 0.040396 -0.220902 153 76 0
0.801910 0.087577 0.108467 153 76 0
0.669107 0.087577 0.416475 153 76 0
-0.067123 0.040396 0.027468 153 76 0
-0.507952 0.064261 -0.550774 153 76 0
0.551970 0.040396 -0.202938 153 76 0
-0.897978 0.049726 0.411163 153 76 0
-0.534275 -0.022542 0.471398 153 76 0
-0.822394 0.014226 0.262799 76 153 0
-0.440912 0.087577 -0.211573 153 76 0
0.221757 0.087577 0.161921 153 76 0
-0.877629 0.056891 -0.418868 153 76 0
0.181107 0.040396 0.298701 153 76 0
-0.830755 0.040396 -0.564363 153 76 0
0.653957 -0.023414 0.337580 127 127 0
0.517590 0.040396 -0.265693 153 76 0
-0.259052 0.087577 -0.274112 153 76 0
0.777948 0.040396 -0.399393 153 76 0
0.567642 0.040396 -0.126861 153 76 0
-0.238691 -0.018734 0.473550 153 76 0
0.517482 0.087577 -0.063493 153 76 0
0.143429 -0.024147 0.008834 76 153 0
-0.535398 -0.032674 0.428587 127 0 127
-0.814482 0.042540 -0.550283 0 0 255
-0.282592 0.087577 0.177765 153 76 0
0.568735 0.040396 -0.490424 153 76 0
-0.430021 0.087577 0.386892 153 76 0
-0.138629 -0.059112 0.372650 76 0 153
0.350871 0.087577 0.224648 153 76 0
-0.781840 0.040396 0.078153 153 76 0
0.152597 0.023647 0.467484 153 76 0
-0.093149 0.087577 0.125979 153 76 0
0.571330 0.029406 0.384604 127 127 0
0.768027 -0.156849 -0.437045 255 0 0
-0.533107 0.040396 -0.405546 153 76 0
0.286282 0.076760 -0.540027 153 76 0
0.422226 0.087577 0.247548 153 76 0
0.257932 0.040396 0.138080 153 76 0
-0.826914 -0.190119 0.418536 204 51 127
-0.732827 -0.223206 0.374619 204 51 127
0.732349 -0.323519 0.381022 153 0 76
-0.772812 0.087577 -0.471993 153 76 0
0.828796 -0.036933 0.368628 153 0 76
-0.608121 0.087577 -0.230761 153 76 0
-0.444343 0.087577 -0.349232 153 76 0
0.784340 0.087577 -0.309448 153 76 0
-0.226325 -0.035638 -0.410537 0 255 0
-0.418567 0.040396 0.356800 153 76 0
-0.822383 0.030794 0.070799 76 153 0
-0.207470 0.087577 -0.340226 153 76 0
-0.278968 0.025019 -0.508823 153 0 76
0.563749 -0.003620 0.444581 153 76 0
-0.284505 0.087577 0.049810 153 76 0
-0.827116 0.040396 -0.244485 153 76 0
0.703643 0.040396 0.313180 153 76 0
0.649755 -0.023753 0.306178 127 127 0
-0.822394 -0.062756 -0.224690 76 153 0
0.551533 0.040396 0.407602 153 76 0
-0.373950 0.040396 -0.145845 153 76 0
0.800434 0.027232 -0.552888 255 0 0
-0.810710 -0.112686 -0.465806 0 0 255
0.700069 0.040396 0.009066 153 76 0
-0.829600 0.070311 -0.544697 153 76 0
-0.230008 0.087577 0.078257 153 76 0
0.793883 0.087577 0.288876 153 76 0
-0.780887 -0.150371 -0.526455 0 0 255
-0.146296 0.087577 -0.357401 153 76 0
-0.295465 0.087577 0.147633 153 76 0
-0.558907 0.040396 -0.364854 153 76 0
0.728751 -0.096287 0.397114 153 0 76
-0.438577 -0.037044 -0.509823 153 0 76
-0.788561 0.042540 0.445554 204 51 127
0.022332 0.040396 -0.519638 153 76 0
-0.797283 0.087577 0.016220 153 76 0
0.735771 -0.350741 -0.515085 255 0 0
-0.652791 -0.078677 0.326155 127 0 127
0.619364 0.040396 0.237287 153 76 0
-0.836848 0.027354 -0.508114 0 0 255
0.694056 0.000505 0.444495 153 76 0
-0.266509 0.040396 0.056873 153 76 0
-0.882030 0.055131 0.326447 153 76 0
0.799845 -0.080041 0.281915 76 0 153
-0.135302 -0.076946 0.468729 153 0 76
0.276896 0.087577 0.064652 153 76 0
-0.836848 -0.038994 0.470736 204 51 127
-0.134868 0.087577 0.302836 153 76 0
-0.449413 0.040396 -0.286634 153 76 0
0.551664 0.040396 -0.143573 153 76 0
-0.349389 0.087577 -0.316559 153 76 0
-0.499935 0.056644 -0.563036 153 76 0
-0.778318 0.040396 -0.547546 153 76 0
-0.213271 -0.028625 -0.310667 0 255 0
0.758915 -0.359093 -0.506782 255 0 0
-0.208015 -0.032393 0.333960 127 0 127
-0.795577 -0.026810 -0.169922 76 153 0
-0.627148 0.087577 -0.360398 153 76 0
0.692660 -0.043161 -0.458163 255 0 0
-0.094600 0.040396 -0.478630 153 76 0
0.220138 -0.029713 -0.060481 0 255 0
0.512574 0.040396 -0.555953 153 76 0
0.534400 0.087577 -0.021629 153 76 0
-0.525156 0.040396 -0.074382 153 76 0
-0.780777 -0.072913 0.350989 76 153 0
0.878393 0.040396 0.397170 153 76 0
0.755728 0.087577 0.005064 153 76 0
-0.067373 -0.050200 0.028672 76 0 153
-0.687983 0.064023 -0.551072 153 76 0
-0.471078 -0.029177 0.447122 153 76 0
-0.068808 0.040396 0.377124 153 76 0
0.517984 0.040396 0.092525 153 76 0
0.387241 0.040396 0.259806 153 76 0
-0.213271 -0.029248 0.206822 0 255 0
-0.379573 -0.010758 -0.538433 153 0 76
-0.738137 -0.055201 -0.552888 0 0 255
-0.672498 0.013846 0.398476 153 76 0
-0.371912 0.087577 -0.269749 153 76 0
0.155937 0.040396 0.251639 153 76 0
-0.666064 -0.047183 0.333525 127 0 127
0.584024 0.040396 -0.018879 153 76 0
0.189932 0.040396 0.204334 153 76 0
0.391925 0.087577 -0.201242 153 76 0
-0.800397 -0.214569 -0.536193 0 0 255
0.040762 0.087577 -0.066016 153 76 0
0.552187 0.040396 0.027264 153 76 0
0.611343 0.087577 0.464266 153 76 0
0.706966 -0.030795 -0.416752 255 0 0
0.107282 -0.023417 0.280178 76 0 153
-0.708711 0.040396 0.332348 153 76 0
0.652133 0.040396 0.238834 153 76 0
0.821908 -0.001319 0.352511 153 0 76
0.551875 -0.017632 0.439662 127 127 0
0.438221 0.040396 -0.069402 153 76 0
0.718215 0.040396 0.139848 153 76 0
0.866450 0.040396 -0.331297 153 76 0
0.125038 -0.079864 -0.518784 153 0 76
