ply
format ascii 1.0
element vertex 1280
property float x
property float y
property float z
property uchar red
property uchar green
property uchar blue
end_header
0.194029 0.003237 0.081463 76 0 153
-0.705814 0.040396 -0.151561 153 76 0
0.277081 0.040396 0.000706 153 76 0
-0.297124 -0.062920 0.445978 153 76 0
0.868508 0.040396 -0.569856 153 76 0
0.665843 -0.036551 0.418532 153 76 0
0.789402 -0.078677 -0.264513 76 0 153
0.373756 0.040396 0.220716 153 76 0
-0.583676 -0.078677 -0.478439 0 127 127
0.304313 0.087577 0.218395 153 76 0
0.300948 -0.059804 0.472795 153 76 0
-0.106557 0.087577 -0.023339 153 76 0
0.706288 -0.093814 0.453791 153 0 76
0.778193 -0.208963 -0.544249 255 0 0
-0.547409 0.040396 0.331822 153 76 0
-0.063266 -0.026223 0.472795 76 0 153
0.319808 0.087577 0.456990 153 76 0
-0.202926 0.040396 0.206372 153 76 0
0.180960 0.070521 -0.544513 153 76 0
-0.794180 -0.046403 0.112067 76 153 0
0.812945 -0.016589 0.099884 76 0 153
0.320825 0.087577 -0.489565 153 76 0
-0.028434 -0.075382 0.134669 76 0 153
0.349640 -0.072693 0.445978 153 76 0
-0.187287 0.087577 0.387503 153 76 0
0.198892 0.087577 0.278832 153 76 0
0.766613 0.018274 0.352511 153 0 76
-0.190478 0.055698 0.500997 153 76 0
0.812945 -0.064152 -0.198896 76 0 153
-0.128505 0.040396 -0.367367 153 76 0
0.105997 0.040396 -0.194339 153 76 0
0.356182 0.059606 0.492996 153 76 0
-0.428246 0.087577 -0.454267 153 76 0
-0.155958 0.040396 0.070657 153 76 0
-0.639623 0.087577 0.222791 153 76 0
-0.199015 0.040396 -0.027048 153 76 0
0.692660 -0.023188 0.404013 153 76 0
-0.575443 0.057904 0.496123 153 76 0
-0.226325 -0.026400 0.053836 0 255 0
-0.218520 0.042041 0.445978 153 76 0
0.722651 -0.291854 0.442140 153 0 76
0.607617 0.087577 0.162902 153 76 0
0.246486 0.040396 -0.458187 153 76 0
-0.239148 0.040396 0.232655 153 76 0
0.724547 0.040396 -0.159890 153 76 0
-0.875890 0.040396 0.061831 153 76 0
-0.361792 0.087577 -0.358580 153 76 0
0.037060 -0.059976 0.311003 76 0 153
0.442697 0.040396 -0.409542 153 76 0
0.762813 0.040396 0.164436 153 76 0
0.881884 0.053044 0.076166 153 76 0
0.093065 -0.075382 0.348856 153 0 76
0.821715 0.087577 0.128000 153 76 0
-0.177025 0.087577 -0.318284 153 76 0
0.127444 0.086383 0.472372 153 76 0
-0.623929 -0.026411 -0.404298 0 127 127
-0.298045 0.042540 0.466875 153 76 0
0.812945 -0.006916 0.149934 76 0 153
0.412304 -0.044195 0.472795 153 76 0
-0.810952 -0.322357 0.403313 204 51 127
-0.596069 0.087577 0.376911 153 76 0
-0.767531 -0.299649 0.376343 204 51 127
0.007282 0.040396 -0.230948 153 76 0
-0.208783 0.040396 -0.134877 153 76 0
-0.740508 -0.178226 -0.432805 0 0 255
-0.820997 -0.045639 -0.146319 76 153 0
0.152728 0.087577 -0.176864 153 76 0
0.738959 -0.254031 -0.435943 255 0 0
0.812945 0.007839 -0.334480 76 0 153
-0.544179 0.040396 0.055772 153 76 0
0.665843 -0.044644 0.353454 153 76 0
0.630646 0.040396 -0.043138 153 76 0
0.397235 0.040396 -0.258125 153 76 0
-0.820997 -0.054083 -0.212080 76 153 0
-0.452253 0.087577 0.100950 153 76 0
0.660835 0.087577 -0.184445 153 76 0
-0.299858 0.040396 -0.247076 153 76 0
-0.492436 0.040396 0.418328 153 76 0
-0.319115 0.087577 0.461000 153 76 0
0.517526 0.040396 -0.472841 153 76 0
-0.827629 0.029028 0.352511 204 51 127
0.430079 0.063601 0.487358 153 76 0
-0.724104 0.087577 -0.238640 153 76 0
-0.673895 0.005012 -0.477826 153 0 76
0.208070 0.087577 -0.206098 153 76 0
-0.787626 0.040396 -0.515512 0 0 255
0.816522 -0.217961 0.408080 153 0 76
0.342958 0.087577 -0.318108 153 76 0
0.600185 -0.048457 0.355748 127 127 0
0.194029 -0.056816 0.203660 76 0 153
0.060204 0.087577 -0.399316 153 76 0
0.224355 -0.005429 -0.537036 153 0 76
-0.645818 0.040396 0.095219 153 76 0
-0.119942 0.087577 -0.499308 153 76 0
0.728782 -0.154776 0.451031 153 0 76
0.763690 -0.062769 -0.552888 255 0 0
0.692660 0.001188 0.464331 153 76 0
-0.035052 0.008800 0.284473 76 0 153
0.463786 0.087577 -0.463785 153 76 0
-0.551752 0.040396 -0.060488 153 76 0
0.456452 0.087577 0.148574 153 76 0
0.042091 -0.075382 0.430784 153 0 76
-0.398981 0.087577 0.038323 153 76 0
0.286382 0.040396 -0.328363 153 76 0
0.560265 0.040396 -0.437569 153 76 0
-0.398587 0.040396 -0.540862 153 76 0
0.726288 0.087577 0.311343 153 76 0
0.195555 0.008800 0.181550 0 127 127
0.549459 -0.050723 0.472795 153 76 0
0.326214 0.040396 -0.326862 153 76 0
0.632273 0.040396 0.111098 153 76 0
-0.380352 0.087577 -0.151344 153 76 0
0.274636 0.006171 0.445978 153 76 0
0.226913 0.011189 0.472795 153 76 0
0.200304 0.040396 0.398388 153 76 0
0.573184 0.040396 -0.068092 153 76 0
-0.749669 -0.048171 -0.278557 0 127 127
-0.032415 0.087577 0.202140 153 76 0
0.384966 0.040396 -0.296485 153 76 0
0.807203 0.058801 0.494462 153 76 0
-0.200601 0.087577 0.174096 153 76 0
-0.152708 0.087577 -0.196096 153 76 0
-0.030930 -0.006010 -0.537036 153 0 76
-0.640122 0.012764 0.323863 127 0 127
-0.261821 0.087577 -0.447899 153 76 0
-0.641260 -0.029276 0.445978 153 76 0
-0.820997 -0.031220 0.261898 76 153 0
0.846151 0.040396 0.411877 153 76 0
-0.700712 -0.020479 -0.429019 0 0 255
-0.364531 0.040396 -0.444212 153 76 0
-0.023481 -0.030536 0.281742 76 0 153
0.812945 0.010971 -0.074027 76 0 153
-0.683774 0.087577 0.428490 153 76 0
-0.661368 -0.078677 0.316998 127 0 127
-0.699795 0.087577 -0.125666 153 76 0
-0.820997 -0.057147 -0.034731 76 153 0
0.410064 0.040396 0.393565 153 76 0
0.302081 0.087577 0.058549 153 76 0
-0.080911 0.040396 -0.179149 153 76 0
0.261960 -0.027797 -0.510220 153 0 76
0.655507 0.071018 0.479838 153 76 0
-0.828884 0.087577 -0.261918 153 76 0
0.818558 0.087577 0.187938 153 76 0
-0.059826 0.087577 0.252084 153 76 0
0.600694 0.040396 -0.510061 153 76 0
0.519354 0.087577 0.356612 153 76 0
-0.720091 0.087577 -0.205976 153 76 0
-0.552084 0.040396 -0.106943 153 76 0
-0.871172 0.060421 0.236450 153 76 0
0.160834 0.040396 -0.435426 153 76 0
-0.447611 0.040396 0.392097 153 76 0
-0.795004 -0.281525 0.459841 204 51 127
0.726253 -0.359093 -0.497529 255 0 0
-0.252410 0.040396 -0.197747 153 76 0
0.786128 0.039961 0.260489 76 0 153
0.128058 -0.075382 0.292808 153 0 76
0.523092 0.040396 0.153460 153 76 0
-0.587202 -0.058997 0.412388 127 0 127
-0.206231 0.087577 -0.463942 153 76 0
0.242403 0.040396 -0.040090 153 76 0
0.786128 -0.021557 0.187431 127 127 0
-0.414246 0.040396 0.216828 153 76 0
0.533651 -0.033427 -0.537036 153 0 76
-0.605551 -0.026007 -0.458280 0 127 127
-0.130535 0.087577 -0.283572 153 76 0
0.706433 0.040396 0.464471 153 76 0
-0.160249 0.042540 -0.536159 153 76 0
0.259611 0.006781 -0.537036 153 0 76
0.869941 0.056734 0.209365 153 76 0
0.398975 0.087577 -0.224123 153 76 0
0.252928 0.040396 0.126130 153 76 0
-0.673895 0.014535 0.438961 153 76 0
-0.468949 0.087577 -0.510939 153 76 0
0.226675 -0.012785 0.445978 153 76 0
-0.712018 0.073584 -0.542139 153 76 0
0.085646 0.040396 0.202706 153 76 0
0.808954 0.042540 -0.356364 76 0 153
0.812945 -0.034253 -0.157307 76 0 153
-0.734557 -0.023455 0.488647 204 51 127
0.298967 0.040396 0.502653 153 76 0
0.102039 0.003146 -0.510220 153 0 76
-0.758331 -0.022074 -0.416752 0 0 255
0.220138 -0.041169 0.103575 0 255 0
0.662164 0.087577 -0.476436 153 76 0
-0.284788 0.087577 0.373828 153 76 0
-0.164099 -0.043802 0.472795 76 0 153
0.123155 -0.075382 0.189925 153 0 76
-0.768272 0.087577 0.092187 153 76 0
0.393161 0.042540 0.450084 153 76 0
0.252191 0.087577 0.385945 153 76 0
-0.802805 -0.078677 -0.411062 0 0 255
0.855541 0.066376 -0.343672 153 76 0
0.775463 -0.297914 0.462140 153 0 76
0.746914 -0.060752 0.352511 153 0 76
-0.820997 -0.076361 -0.125066 76 153 0
-0.794180 0.012213 -0.207722 76 153 0
-0.074004 0.040396 -0.029200 153 76 0
0.293738 0.087577 0.329765 153 76 0
-0.180067 -0.059976 0.230645 76 0 153
0.151959 0.087577 -0.535180 153 76 0
0.035058 -0.075382 0.197626 153 0 76
-0.333925 0.040396 0.220828 153 76 0
0.764588 0.087577 -0.157118 153 76 0
0.376240 0.040396 0.421203 153 76 0
0.009149 0.087577 0.153070 153 76 0
-0.327500 0.040396 -0.551948 153 76 0
-0.627191 -0.071447 0.372398 127 0 127
-0.820997 -0.060207 0.029932 76 153 0
-0.755995 -0.298874 0.462757 204 51 127
-0.820997 0.017620 -0.041823 76 153 0
-0.086580 -0.075382 0.348655 153 0 76
0.053705 0.087577 -0.271049 153 76 0
-0.110277 0.040396 0.122204 153 76 0
-0.799698 -0.185850 -0.432947 0 0 255
-0.566524 -0.043492 -0.510220 153 0 76
-0.780765 -0.223115 -0.543524 0 0 255
-0.195764 0.087577 -0.215577 153 76 0
-0.627526 -0.078677 0.467236 153 76 0
-0.144152 -0.059976 0.149568 76 0 153
-0.848219 0.040396 -0.137749 153 76 0
-0.493037 0.040396 -0.191831 153 76 0
0.312894 -0.057805 -0.537036 153 0 76
-0.634145 -0.011414 -0.510220 153 0 76
0.034889 -0.059976 0.255928 76 0 153
-0.112561 0.042540 -0.518574 153 76 0
0.805766 0.042540 0.366077 153 0 76
-0.337133 0.087577 -0.062480 153 76 0
0.827777 0.040396 0.317274 153 76 0
-0.870981 0.050864 -0.582057 153 76 0
0.626781 -0.038981 0.329152 127 127 0
-0.604799 -0.022881 0.394790 127 0 127
-0.419185 0.087577 0.352920 153 76 0
-0.794180 -0.016922 0.203290 127 0 127
-0.731956 -0.357653 -0.490026 0 0 255
-0.114997 -0.059976 0.028604 76 0 153
-0.273756 0.040396 -0.167150 153 76 0
-0.793143 0.087577 0.413015 153 76 0
0.131319 0.016447 -0.510220 153 0 76
-0.673895 -0.062430 0.375755 153 76 0
0.307811 0.040396 0.090073 153 76 0
-0.820997 0.034393 0.174621 153 76 0
0.464190 0.087577 0.321442 153 76 0
0.212224 0.087577 0.393657 153 76 0
0.860353 0.062292 0.296145 153 76 0
0.807122 -0.244568 0.394165 153 0 76
0.228080 0.040396 0.498818 153 76 0
0.632830 0.087577 0.443970 153 76 0
-0.762695 0.012061 -0.265531 0 127 127
0.802641 -0.125238 0.396546 153 0 76
-0.620192 0.087577 0.121518 153 76 0
-0.355171 0.040396 0.378607 153 76 0
0.755011 -0.078677 0.328998 76 0 153
-0.529856 0.040396 0.303544 153 76 0
-0.572211 -0.047829 -0.456016 0 127 127
-0.466901 0.087577 0.287392 153 76 0
-0.003802 -0.065731 -0.510220 153 0 76
-0.727737 0.002089 -0.300489 0 127 127
-0.794180 0.037963 -0.099642 76 153 0
-0.762230 0.087577 -0.108420 153 76 0
0.753235 0.009213 0.238302 127 127 0
-0.194923 -0.024305 -0.510220 153 0 76
-0.835542 0.040396 0.029680 153 76 0
-0.794180 0.012980 0.145467 76 153 0
-0.878976 0.040396 0.412226 153 76 0
-0.187692 0.040396 -0.092979 153 76 0
-0.098879 0.056001 -0.564533 153 76 0
0.673305 0.040396 0.522275 153 76 0
0.727026 -0.219989 -0.533328 255 0 0
0.369381 0.040396 0.065908 153 76 0
-0.459655 0.040396 -0.334381 153 76 0
0.150127 0.087577 -0.242110 153 76 0
-0.445375 0.087577 -0.199855 153 76 0
-0.664469 0.040396 0.147199 153 76 0
-0.125609 -0.075382 0.106047 153 0 76
-0.259193 0.040396 -0.283209 153 76 0
-0.031363 0.040396 -0.543543 153 76 0
-0.768549 0.040396 0.408024 153 76 0
0.744170 -0.073840 -0.389935 76 0 153
0.726538 -0.216387 0.371693 153 0 76
0.812945 0.016311 0.047800 76 0 153
-0.902694 0.042210 0.463705 153 76 0
0.770862 0.018203 0.187286 127 127 0
-0.360448 0.040396 -0.410991 153 76 0
0.161394 0.087577 -0.291290 153 76 0
0.562361 -0.042438 0.393572 127 127 0
-0.794180 -0.008356 -0.317041 76 153 0
-0.133037 0.001911 -0.510220 153 0 76
0.114793 0.032595 0.480999 153 76 0
-0.589553 0.040396 0.296448 153 76 0
-0.800275 -0.325518 -0.446083 0 0 255
-0.005937 0.040396 0.198918 153 76 0
-0.737938 -0.124558 -0.446734 0 0 255
-0.421641 0.018834 0.445978 153 76 0
0.170814 -0.002925 -0.537036 153 0 76
0.591676 0.061127 -0.554938 153 76 0
0.265274 0.087577 -0.174374 153 76 0
0.125105 0.040396 -0.556056 153 76 0
0.722457 0.087577 0.067111 153 76 0
-0.819263 0.026880 -0.552888 0 0 255
0.635180 0.040396 -0.432326 153 76 0
0.648566 -0.073040 0.472795 153 76 0
-0.562327 0.087577 -0.409163 153 76 0
-0.275916 0.087577 -0.260087 153 76 0
0.812945 -0.014862 -0.058094 76 0 153
-0.488866 0.040396 0.149245 153 76 0
-0.861965 0.067934 0.320810 153 76 0
0.424930 0.087577 0.392434 153 76 0
0.750435 0.087577 -0.012257 153 76 0
-0.720334 -0.075908 -0.416752 0 0 255
-0.242576 0.087577 0.147670 153 76 0
0.726422 0.040396 -0.355138 153 76 0
0.679839 0.074289 -0.541626 153 76 0
0.776863 -0.359093 -0.519903 255 0 0
-0.242548 0.040396 0.501461 153 76 0
-0.621939 0.040396 -0.081207 153 76 0
0.196222 0.040396 -0.380048 153 76 0
-0.705244 0.040396 -0.028739 153 76 0
-0.015350 0.087577 0.360158 153 76 0
0.174942 0.040396 -0.270799 153 76 0
0.618474 0.015085 -0.401700 0 255 0
0.656413 -0.017154 -0.537036 153 0 76
-0.624231 0.040396 -0.451086 153 76 0
0.660002 -0.052197 0.295931 127 127 0
-0.226325 -0.013481 0.007534 0 255 0
-0.226664 0.087577 -0.091350 153 76 0
0.220138 -0.043304 0.354221 0 255 0
-0.068443 0.040396 -0.562358 153 76 0
0.525817 0.087577 0.321047 153 76 0
-0.807885 -0.155532 0.399610 204 51 127
0.599857 0.040396 0.041219 153 76 0
-0.700712 0.008826 -0.515524 0 0 255
-0.690051 -0.078677 -0.520474 153 0 76
-0.820997 0.011742 -0.225485 76 153 0
0.113185 -0.034717 -0.510220 153 0 76
-0.794180 -0.052545 0.141454 76 153 0
0.822426 0.040396 0.113508 76 0 153
-0.514107 -0.065730 0.472795 153 76 0
-0.734841 0.087577 -0.380421 153 76 0
0.756155 0.040396 0.290826 153 76 0
-0.371015 0.024832 -0.510220 153 0 76
-0.769523 0.087577 -0.170187 153 76 0
-0.627561 -0.017128 0.336424 127 0 127
0.805296 -0.276971 0.434204 153 0 76
-0.769285 0.040396 0.167823 153 76 0
0.645951 -0.002022 -0.409827 0 255 0
-0.652793 -0.038759 -0.510220 153 0 76
0.581141 0.040396 0.145399 153 76 0
-0.778084 -0.096393 0.446586 204 51 127
-0.668113 0.040396 0.219464 153 76 0
0.160069 0.087577 0.133808 153 76 0
0.398274 -0.077918 -0.537036 153 0 76
0.117259 0.040396 -0.135170 153 76 0
0.298981 0.087577 -0.437434 153 76 0
0.377603 -0.035565 0.472795 153 76 0
-0.672053 0.006132 -0.537036 153 0 76
-0.768311 -0.036431 -0.389935 76 153 0
0.559409 0.087577 -0.096261 153 76 0
-0.167112 -0.060284 0.010402 76 153 0
0.636553 0.040396 0.255812 153 76 0
-0.351453 0.087577 -0.403235 153 76 0
-0.704567 -0.031624 -0.359264 0 127 127
0.695909 0.042540 0.414300 153 0 76
0.528887 0.087577 0.048185 153 76 0
0.894642 0.043098 -0.524375 153 76 0
-0.400340 -0.029136 -0.537036 153 0 76
0.726186 -0.358475 0.435026 153 0 76
0.462995 0.087577 -0.220083 153 76 0
0.781138 0.087577 0.391693 153 76 0
0.270113 -0.065433 -0.510220 153 0 76
0.549787 -0.021881 0.441750 127 127 0
-0.276992 0.087577 -0.008134 153 76 0
0.184153 -0.075382 0.408344 76 0 153
0.205219 -0.041940 -0.252071 0 255 0
0.840922 0.087577 0.400226 153 76 0
0.828796 0.018889 -0.463128 255 0 0
0.243688 0.087577 -0.204894 153 76 0
-0.147795 0.040396 -0.236167 153 76 0
0.766336 0.040396 -0.000439 153 76 0
0.523252 0.040396 0.384534 153 76 0
-0.820997 -0.005897 -0.000635 76 153 0
-0.774818 0.040396 -0.164948 76 153 0
0.807086 0.042540 0.432017 153 0 76
0.232161 0.087577 0.339964 153 76 0
-0.556361 -0.014374 0.443228 127 0 127
-0.802778 -0.125198 -0.449090 0 0 255
-0.638701 0.040396 0.503464 153 76 0
-0.022060 -0.025020 0.490717 127 127 0
0.030494 0.040396 -0.481906 153 76 0
-0.152483 0.087577 -0.435441 153 76 0
0.786128 0.015492 0.110068 76 0 153
0.697757 0.011311 0.352511 76 0 153
0.380571 0.053654 -0.571977 153 76 0
-0.602925 -0.078677 0.448868 153 76 0
-0.775230 -0.018144 0.352511 204 51 127
0.210209 0.040396 -0.168645 153 76 0
0.188872 0.040396 0.061314 153 76 0
-0.752789 -0.061832 0.246800 127 0 127
-0.830119 0.040396 0.257860 76 153 0
-0.419523 0.087577 -0.348455 153 76 0
-0.226325 -0.014907 0.419921 0 255 0
-0.142506 0.087577 0.211162 153 76 0
-0.172731 0.087577 0.233905 153 76 0
0.468017 0.062769 -0.552642 153 76 0
0.357152 0.087577 -0.476863 153 76 0
0.519005 -0.003021 0.472795 153 76 0
-0.189432 0.087577 -0.139604 153 76 0
0.515192 0.087577 -0.178683 153 76 0
0.564587 -0.020665 -0.455587 0 255 0
-0.332166 0.042540 0.465150 153 76 0
0.664225 0.011461 0.472795 153 76 0
0.201444 0.040396 -0.554470 153 76 0
-0.067140 0.087577 -0.120963 153 76 0
0.228961 -0.054954 -0.537036 153 0 76
-0.680818 -0.010234 -0.383012 76 153 0
0.714256 0.031629 0.325694 76 0 153
-0.090806 0.087577 0.019122 153 76 0
0.219678 -0.043928 0.313235 0 255 0
-0.220045 -0.012225 0.139431 0 255 0
-0.405186 -0.014385 -0.510220 153 0 76
-0.058602 0.040396 0.072735 153 76 0
-0.449797 0.011141 -0.510220 153 0 76
0.728327 0.040396 -0.516263 255 0 0
-0.137293 -0.075382 0.295117 153 0 76
0.772601 -0.274184 -0.436222 255 0 0
-0.346745 -0.039651 -0.510220 153 0 76
-0.763978 0.040396 0.068409 153 76 0
-0.791690 0.010820 -0.272141 0 127 127
-0.417333 0.040396 0.338340 153 76 0
0.867432 0.057929 0.169062 153 76 0
-0.214749 0.040396 -0.176394 153 76 0
-0.774093 -0.078257 -0.289737 0 127 127
-0.794180 -0.033213 0.164820 76 153 0
0.089334 0.040396 0.091191 153 76 0
-0.464439 0.087577 0.257742 153 76 0
0.164182 0.060656 0.491409 153 76 0
-0.688088 0.040346 0.311501 127 0 127
0.859162 0.063243 -0.446626 153 76 0
0.768278 0.040396 -0.069745 153 76 0
0.476800 0.040396 0.270348 153 76 0
0.248572 0.040396 0.285266 153 76 0
0.642266 0.087577 0.342654 153 76 0
0.194626 0.087577 0.339655 153 76 0
-0.561019 0.042540 0.403477 153 76 0
-0.223442 0.087577 0.354284 153 76 0
0.350265 0.087577 0.412316 153 76 0
-0.820997 0.004531 -0.297176 76 153 0
0.191100 0.087577 0.071261 153 76 0
0.813508 0.087577 -0.271184 153 76 0
0.055192 0.087577 0.469530 153 76 0
0.212642 -0.043928 0.263346 0 255 0
-0.307273 0.040396 -0.433338 153 76 0
-0.690191 -0.078677 -0.485120 0 0 255
-0.700712 0.032342 0.440640 204 51 127
-0.696004 -0.068075 0.267981 127 0 127
-0.715591 -0.205637 -0.510386 0 0 255
-0.022119 0.012121 -0.510220 153 0 76
-0.284003 0.040396 -0.109784 153 76 0
-0.820997 -0.076511 0.337502 76 153 0
-0.510278 0.040396 -0.114766 153 76 0
-0.063947 -0.059976 0.450455 76 0 153
0.786128 0.020451 0.067871 76 0 153
0.485579 0.037919 0.472795 153 76 0
-0.353644 0.087577 -0.095462 153 76 0
-0.287106 0.087577 -0.531612 153 76 0
-0.624236 0.040396 0.421384 153 76 0
0.353701 0.087577 0.002526 153 76 0
-0.105980 -0.025176 -0.537036 153 0 76
-0.760710 0.015236 -0.552888 0 0 255
0.194029 -0.027848 0.209916 0 255 0
0.360119 0.087577 -0.108857 153 76 0
-0.475834 0.040396 -0.410083 153 76 0
-0.586588 0.040396 0.107374 153 76 0
0.812945 -0.015207 -0.007553 76 0 153
-0.794180 0.014701 0.214420 127 0 127
0.344646 0.087577 0.308877 153 76 0
-0.147043 -0.059976 0.428975 76 0 153
-0.629557 -0.017223 0.472795 153 76 0
0.665843 0.008627 0.377734 153 76 0
-0.226325 -0.015965 0.184532 0 255 0
-0.821086 0.087577 0.070223 153 76 0
-0.820997 -0.073380 0.147018 76 153 0
-0.327166 0.087577 0.330338 153 76 0
-0.155282 0.087577 0.270166 153 76 0
0.812945 -0.022858 -0.351420 76 0 153
0.044589 0.087577 -0.108841 153 76 0
0.073059 -0.059976 0.237582 76 0 153
0.428339 -0.036305 -0.537036 153 0 76
0.810283 -0.111643 -0.468469 255 0 0
0.387015 0.087577 0.114332 153 76 0
-0.118289 0.087577 0.320444 153 76 0
0.542957 0.040396 -0.230643 153 76 0
0.739475 -0.022121 0.325694 76 0 153
-0.841331 0.040396 0.450531 153 76 0
0.097524 -0.052956 0.281742 76 0 153
0.107256 0.040396 0.249801 153 76 0
-0.463987 -0.073123 -0.537036 153 0 76
-0.778580 -0.046882 -0.552888 0 0 255
0.343239 -0.055983 -0.510220 153 0 76
-0.794180 0.018834 -0.386414 76 153 0
0.358403 0.087577 0.159709 153 76 0
0.661181 0.087577 0.147110 153 76 0
-0.745866 0.017096 -0.389935 76 153 0
0.665843 -0.042363 -0.420803 153 0 76
0.754450 0.040396 -0.317496 153 76 0
-0.621464 0.087577 0.290917 153 76 0
0.498043 0.087577 0.099026 153 76 0
0.722061 -0.149854 0.422134 153 0 76
0.032569 0.036283 0.484330 153 76 0
0.786128 -0.026039 0.217917 76 0 153
0.692660 0.000313 -0.450214 255 0 0
-0.051110 -0.059976 0.369281 76 0 153
-0.826552 -0.210253 -0.479509 0 0 255
0.275209 0.087577 -0.015424 153 76 0
0.383356 0.040396 0.292731 153 76 0
0.310122 0.040396 -0.054307 153 76 0
-0.738770 0.040396 0.213521 153 76 0
0.164832 -0.039076 -0.510220 153 0 76
-0.674437 -0.023275 -0.537036 153 0 76
-0.673895 -0.005565 -0.448542 153 0 76
-0.767219 -0.005903 0.196766 127 0 127
-0.825898 0.087577 -0.073449 153 76 0
-0.578872 0.087577 0.074957 153 76 0
0.298036 0.087577 -0.125861 153 76 0
-0.412905 -0.078677 -0.519732 153 0 76
0.171063 0.007787 0.288269 76 0 153
0.288268 0.040396 0.265150 153 76 0
-0.157179 0.040396 -0.450419 153 76 0
0.726312 -0.173177 0.375430 153 0 76
-0.568818 0.025113 -0.510220 0 127 127
-0.801897 -0.128903 0.384475 204 51 127
0.179755 -0.077953 -0.510220 153 0 76
-0.469469 0.087577 0.351924 153 76 0
0.066146 0.040396 -0.025696 153 76 0
0.684403 -0.078677 -0.521695 153 0 76
-0.604778 -0.065505 -0.510220 153 0 76
-0.073285 -0.026331 0.022524 76 0 153
0.416375 0.040396 -0.483610 153 76 0
-0.046965 -0.048217 -0.510220 153 0 76
-0.741060 0.087577 0.345683 153 76 0
0.351616 0.040465 0.523287 153 76 0
-0.017949 -0.047384 0.022524 76 0 153
-0.159450 0.003890 -0.537036 153 0 76
-0.723684 -0.099364 0.448670 204 51 127
0.273890 0.064571 0.486144 153 76 0
-0.202007 -0.075382 0.258422 153 0 76
0.198716 0.015217 -0.537036 153 0 76
0.554927 0.040396 0.281466 153 76 0
0.596789 0.087577 0.254687 153 76 0
0.622019 0.087577 0.192053 153 76 0
0.782239 0.040396 -0.173126 153 76 0
-0.588707 -0.014274 0.445978 153 76 0
-0.275943 0.087577 0.249932 153 76 0
0.786128 -0.030882 0.056964 76 0 153
0.535448 0.016672 -0.484726 0 255 0
0.319659 0.040396 0.455317 153 76 0
-0.592524 0.003205 -0.537036 153 0 76
0.288612 0.040396 -0.266116 153 76 0
0.842121 0.040396 -0.010015 153 76 0
-0.684330 0.040396 0.071927 153 76 0
-0.143869 0.070428 -0.544595 153 76 0
0.490494 0.040396 -0.214475 153 76 0
0.486414 0.087577 0.053121 153 76 0
0.079074 0.040396 0.494761 153 76 0
-0.589113 0.040396 -0.401809 153 76 0
-0.683929 0.040396 0.254444 153 76 0
-0.289533 0.040396 0.237770 153 76 0
0.411393 0.040396 -0.204201 153 76 0
0.706567 -0.236462 0.420083 153 0 76
0.754477 0.040396 0.395215 153 76 0
0.479063 0.040396 0.037684 153 76 0
-0.674948 0.040396 -0.149892 153 76 0
0.828796 -0.022115 0.390577 153 0 76
-0.274761 0.040396 -0.509305 153 76 0
-0.716994 -0.075184 0.246992 127 0 127
0.704961 0.040396 -0.069459 153 76 0
-0.244180 0.087577 -0.010110 153 76 0
0.473037 0.040396 -0.294290 153 76 0
0.061627 0.040396 -0.374053 153 76 0
0.738601 -0.096393 -0.506634 255 0 0
-0.402135 0.087577 0.075669 153 76 0
-0.014157 -0.078677 -0.534345 153 0 76
0.751912 -0.042508 -0.268262 0 255 0
0.717696 0.040396 0.022837 153 76 0
0.725878 0.053287 0.509323 153 76 0
0.824300 0.087577 -0.142141 153 76 0
0.423267 -0.078324 0.445978 153 76 0
-0.712700 -0.044626 0.286889 127 0 127
0.250725 0.087577 0.137178 153 76 0
0.812945 -0.050299 0.265643 76 0 153
-0.551950 0.087577 0.119418 153 76 0
0.786128 -0.023246 0.150976 76 0 153
0.166544 -0.059976 0.216587 76 0 153
0.812945 -0.014156 0.045388 76 0 153
-0.757138 0.087577 0.240168 153 76 0
-0.006922 0.040396 -0.135164 153 76 0
0.611783 0.087577 -0.004655 153 76 0
0.196123 0.040396 0.446497 153 76 0
0.120166 -0.059976 0.428671 76 0 153
0.786128 -0.022014 -0.365132 76 0 153
-0.869882 0.061275 -0.372988 153 76 0
0.184596 0.087577 0.373961 153 76 0
0.786128 0.012624 0.250176 76 0 153
0.670934 -0.078677 0.363108 153 76 0
-0.680384 -0.016942 0.472795 153 76 0
-0.406636 0.040396 0.376563 153 76 0
0.184569 -0.013389 -0.510220 153 0 76
0.469421 0.087577 0.255119 153 76 0
-0.103562 0.087577 0.133023 153 76 0
0.524476 0.087577 0.468680 153 76 0
0.300418 0.087577 -0.220971 153 76 0
-0.769865 0.030301 0.229725 153 76 0
0.810507 -0.257318 -0.479884 255 0 0
-0.464539 0.040396 -0.563546 153 76 0
0.348526 0.040396 0.240257 153 76 0
-0.650453 0.040396 -0.489517 153 76 0
-0.836848 -0.030715 -0.549731 0 0 255
-0.500081 0.040396 0.088483 153 76 0
0.027064 0.040396 -0.319741 153 76 0
0.613959 -0.020579 -0.441819 0 255 0
-0.194737 -0.051955 0.375770 127 0 127
-0.734935 0.040396 0.072608 153 76 0
-0.743036 0.040396 -0.206488 153 76 0
-0.750314 0.040396 -0.090888 153 76 0
0.194029 -0.030827 0.146849 0 255 0
0.341982 0.040396 -0.553662 153 76 0
-0.794180 -0.076548 0.281758 76 153 0
-0.000446 0.087577 -0.413911 153 76 0
-0.510134 0.087577 0.443087 153 76 0
-0.565789 0.087577 0.154321 153 76 0
-0.124713 0.031550 0.445978 153 76 0
-0.667068 0.087577 -0.151139 153 76 0
0.744559 -0.112039 0.470489 153 0 76
0.768281 -0.173536 0.478345 153 0 76
-0.024006 -0.059976 0.208800 76 0 153
-0.771402 0.087577 -0.288784 153 76 0
0.706599 -0.027807 -0.313575 0 255 0
-0.044859 -0.059976 0.253385 76 0 153
0.064167 0.040396 -0.237588 153 76 0
-0.794180 0.020385 0.259750 76 153 0
-0.273333 0.040396 -0.351031 153 76 0
0.268105 0.087577 0.211147 153 76 0
-0.647495 -0.076818 0.445978 153 76 0
-0.758418 -0.082967 0.488647 204 51 127
-0.850540 0.040396 -0.013325 153 76 0
0.304625 0.087577 -0.373509 153 76 0
-0.533670 0.063470 -0.551764 153 76 0
0.715176 -0.009728 -0.416752 255 0 0
-0.345497 0.087577 0.290186 153 76 0
-0.056410 0.087577 -0.190707 153 76 0
0.593763 -0.030757 0.445978 153 76 0
-0.787397 0.034245 -0.240829 0 127 127
0.435599 0.040396 0.311669 153 76 0
-0.772576 -0.359093 0.382243 204 51 127
0.267905 0.087577 -0.070433 153 76 0
-0.705873 0.087577 0.392350 153 76 0
-0.543991 0.040396 -0.002414 153 76 0
0.141118 0.087577 -0.008725 153 76 0
0.048654 0.040396 -0.550356 153 76 0
0.625360 -0.073047 -0.430418 0 255 0
0.212996 0.087577 -0.061285 153 76 0
0.082208 0.040396 0.058603 153 76 0
0.800017 -0.092686 0.480455 153 0 76
-0.748581 -0.014000 -0.315249 0 127 127
0.894642 0.042443 -0.077542 153 76 0
-0.383065 0.087577 -0.044861 153 76 0
-0.178786 0.042540 -0.513836 153 0 76
0.785830 0.087577 0.322263 153 76 0
-0.194737 -0.017689 0.226553 76 0 153
0.419010 0.087577 -0.519884 153 76 0
0.718756 -0.093615 -0.429376 255 0 0
-0.690861 0.087577 0.228923 153 76 0
0.414189 0.087577 -0.430030 153 76 0
0.378196 0.087577 0.363880 153 76 0
0.894642 0.041306 -0.313566 153 76 0
0.596032 0.087577 -0.079072 153 76 0
-0.726961 0.087577 0.010620 153 76 0
-0.761563 0.040396 -0.479337 0 0 255
0.096657 -0.059976 0.445659 76 0 153
0.838685 0.087577 -0.226583 153 76 0
-0.057665 0.040396 -0.099860 153 76 0
-0.260634 0.038608 0.472795 153 76 0
-0.824316 0.087577 -0.296259 153 76 0
0.285611 0.087577 0.108812 153 76 0
-0.047752 0.040396 -0.270403 153 76 0
0.104839 0.040396 0.435093 153 76 0
0.821922 0.007654 -0.416752 255 0 0
-0.100734 0.040396 -0.430964 153 76 0
0.542373 0.040396 -0.068904 153 76 0
0.704139 0.087577 -0.126094 153 76 0
-0.840927 0.087577 0.287987 153 76 0
0.786128 -0.042765 -0.214652 76 0 153
-0.794180 -0.040525 -0.050996 76 153 0
0.786128 -0.044090 0.084463 76 0 153
-0.131365 -0.045951 -0.537036 153 0 76
-0.700712 -0.071601 0.408083 204 51 127
-0.229339 0.087577 -0.403074 153 76 0
0.821661 -0.019338 -0.552888 255 0 0
0.265722 -0.023467 0.445978 153 76 0
0.855615 0.066305 -0.522188 153 76 0
-0.533149 -0.027946 0.472795 153 76 0
-0.700712 0.018081 0.380117 153 76 0
-0.682032 0.040396 -0.072140 153 76 0
-0.804531 -0.096106 0.423477 204 51 127
0.102400 0.087577 -0.524308 153 76 0
0.762600 0.087577 0.214539 153 76 0
-0.487999 0.040396 -0.041516 153 76 0
0.566117 0.040396 -0.006577 153 76 0
-0.085653 0.000592 0.472795 76 0 153
0.868462 0.057373 0.345303 153 76 0
-0.785518 -0.096368 0.391822 204 51 127
0.723473 -0.048171 -0.332305 0 255 0
-0.122302 -0.018835 0.010402 76 153 0
0.185511 -0.075382 0.300590 153 0 76
0.141388 0.040396 0.489620 153 76 0
-0.170453 0.040396 0.418099 153 76 0
0.072425 0.040396 0.354277 153 76 0
0.158365 -0.059976 0.328979 153 0 76
0.212953 0.040396 -0.079333 153 76 0
0.812945 -0.054618 -0.100453 76 0 153
0.502541 0.056084 0.500100 153 76 0
0.009675 0.014150 -0.510220 153 0 76
-0.819507 -0.253705 0.423372 204 51 127
-0.794180 -0.057336 -0.122735 76 153 0
-0.131008 0.040396 0.245732 153 76 0
0.700586 -0.042427 0.325694 76 0 153
0.228357 -0.023274 0.472795 153 76 0
0.710135 0.040396 -0.217511 153 76 0
-0.363072 0.087577 0.161878 153 76 0
0.806261 0.040396 -0.460359 153 76 0
0.037333 0.087577 -0.167778 153 76 0
-0.549684 0.008654 -0.478542 0 127 127
-0.643933 0.087577 -0.398972 153 76 0
-0.157952 0.040396 0.002229 153 76 0
-0.449623 0.087577 0.430440 153 76 0
-0.820997 0.011581 -0.149835 76 153 0
-0.794180 -0.010428 -0.156622 76 153 0
0.571187 -0.000029 0.472795 153 76 0
0.710305 -0.015324 0.245628 127 127 0
-0.808505 0.042540 0.126824 76 153 0
-0.226325 -0.043839 0.270046 0 255 0
0.786128 0.024859 -0.025857 76 0 153
-0.086420 -0.059976 0.113357 76 0 153
-0.097311 -0.059976 0.058309 76 0 153
0.825653 0.087577 0.368972 153 76 0
0.866635 0.058359 -0.478933 153 76 0
0.812945 -0.076385 -0.011094 76 0 153
-0.506713 0.087577 -0.164473 153 76 0
0.245255 0.087577 0.242018 153 76 0
0.812945 -0.020623 -0.221181 76 0 153
-0.353935 0.040396 -0.133755 153 76 0
-0.348430 0.087577 0.452044 153 76 0
0.857538 0.064540 -0.092135 153 76 0
-0.063147 0.040396 0.281859 153 76 0
0.637983 -0.004513 0.353554 127 127 0
0.067982 0.040396 0.258448 153 76 0
0.614311 0.040396 0.175786 153 76 0
-0.193534 0.027961 0.445978 153 76 0
0.843727 0.085965 0.048851 153 76 0
-0.041593 -0.023449 0.010402 76 153 0
0.376882 0.040396 -0.411346 153 76 0
-0.820997 -0.007394 0.043717 76 153 0
-0.300285 -0.004231 0.472795 153 76 0
0.413748 0.087577 0.314377 153 76 0
0.609063 0.040396 -0.263551 153 76 0
-0.700712 -0.052854 -0.427969 153 0 76
0.572895 -0.078677 -0.478941 0 255 0
0.843727 0.087349 0.293224 153 76 0
0.056601 0.007735 0.022524 76 0 153
0.220138 -0.040325 0.427497 0 255 0
-0.673895 -0.065304 -0.430057 153 0 76
0.812945 0.026902 0.201314 153 76 0
0.331251 0.087577 -0.260275 153 76 0
0.498514 0.009808 0.445978 153 76 0
-0.849454 0.040396 0.180772 153 76 0
0.868378 0.057418 -0.045085 153 76 0
0.689302 0.087577 -0.244757 153 76 0
0.644026 0.020726 0.311908 127 127 0
-0.847705 0.040396 -0.313932 153 76 0
-0.239643 -0.005325 -0.510220 153 0 76
-0.868327 0.062355 -0.008588 153 76 0
0.477393 0.087577 0.435259 153 76 0
-0.194737 -0.023812 0.370627 76 0 153
0.353445 0.087577 -0.346052 153 76 0
0.220010 0.087577 -0.383315 153 76 0
-0.345071 0.040396 -0.376050 153 76 0
0.076179 -0.026405 0.288269 76 0 153
0.438330 0.040396 0.025817 153 76 0
0.561724 0.008014 0.394209 127 127 0
0.593446 -0.065851 -0.537036 153 0 76
0.676311 -0.019132 -0.343863 0 255 0
-0.465658 -0.025080 0.472795 153 76 0
0.034320 0.087577 -0.007982 153 76 0
-0.890252 0.040396 0.522373 153 76 0
-0.578889 0.087577 0.214103 153 76 0
-0.234602 0.040396 -0.364169 153 76 0
-0.643966 0.087577 0.341078 153 76 0
0.817864 -0.093278 -0.516929 255 0 0
0.623211 -0.026241 -0.510220 153 0 76
-0.353274 0.087577 -0.519696 153 76 0
-0.036076 0.040396 -0.443137 153 76 0
-0.823483 0.087577 -0.199467 153 76 0
0.772706 0.087577 0.147906 153 76 0
-0.213271 -0.039462 -0.071751 0 255 0
-0.794180 0.007555 -0.084144 76 153 0
0.785604 -0.147814 0.392766 153 0 76
0.353707 0.087577 0.335929 153 76 0
-0.773225 0.040396 -0.300269 0 127 127
-0.299757 0.087577 0.164159 153 76 0
-0.772524 -0.039159 0.325694 76 153 0
-0.533766 0.017599 -0.537036 153 76 0
-0.065532 0.087577 -0.502085 153 76 0
0.430758 0.040396 0.356820 153 76 0
0.786128 -0.032993 -0.128643 76 0 153
-0.866445 0.040396 0.492355 153 76 0
-0.446702 0.087577 -0.339306 153 76 0
-0.454533 0.087577 0.040159 153 76 0
-0.786314 -0.243912 0.473488 204 51 127
-0.426490 0.087577 0.161180 153 76 0
0.050457 0.087577 0.143672 153 76 0
0.812945 -0.075558 -0.119945 76 0 153
-0.166561 -0.078677 0.458323 153 0 76
0.449864 0.087577 -0.272516 153 76 0
-0.098807 0.087577 -0.335913 153 76 0
0.542388 0.040396 -0.415414 153 76 0
-0.395201 0.040396 -0.405573 153 76 0
0.722733 0.021915 -0.552888 255 0 0
-0.694883 -0.043381 -0.333343 0 127 127
-0.149479 0.057224 0.497447 153 76 0
-0.700712 -0.064618 0.355959 153 76 0
0.419695 0.087577 -0.072746 153 76 0
0.359501 0.087577 -0.266015 153 76 0
0.490562 -0.057863 0.472795 153 76 0
0.510785 0.040396 -0.234948 153 76 0
-0.652757 -0.041917 -0.375470 0 127 127
0.137487 0.087577 -0.204099 153 76 0
-0.266975 -0.012873 0.472795 153 76 0
0.054611 0.040396 0.002547 153 76 0
0.636681 0.040396 -0.225604 153 76 0
0.115626 -0.075382 0.227607 76 0 153
-0.731533 -0.356557 0.418141 204 51 127
0.320579 -0.055689 0.445978 153 76 0
-0.630372 -0.050686 0.472795 153 76 0
-0.478165 0.042540 -0.533198 153 76 0
-0.126253 0.087577 0.407504 153 76 0
-0.877068 0.057132 -0.267362 153 76 0
-0.458811 0.087577 -0.440184 153 76 0
-0.658907 0.024846 0.305078 127 0 127
-0.080929 -0.054057 0.484583 127 127 0
0.812945 -0.074647 -0.057711 76 0 153
0.194029 -0.035598 0.061913 0 255 0
0.582331 0.087577 -0.400266 153 76 0
-0.192607 0.040396 -0.440231 153 76 0
0.812945 -0.049175 0.092319 76 0 153
-0.798593 0.087577 -0.363757 153 76 0
-0.278818 0.087577 -0.059615 153 76 0
0.533967 0.087577 0.270276 153 76 0
0.577467 -0.045032 0.472795 153 76 0
-0.794180 -0.051487 -0.308332 76 153 0
0.242101 0.040396 -0.284322 153 76 0
-0.476917 0.087577 0.058001 153 76 0
0.152656 0.087577 0.039504 153 76 0
-0.820997 -0.016339 -0.069083 76 153 0
-0.417392 0.087577 -0.390466 153 76 0
0.828796 -0.023720 -0.490779 255 0 0
0.330363 0.040396 -0.214737 153 76 0
-0.702759 0.069610 0.481069 153 76 0
0.657500 0.054976 0.503096 153 76 0
0.812945 -0.058613 -0.297032 76 0 153
-0.314186 0.040396 -0.211546 153 76 0
0.448352 0.007364 -0.510220 153 0 76
0.620817 0.042540 0.461243 153 76 0
-0.248674 -0.078677 0.470288 153 76 0
0.420479 0.040396 -0.167483 153 76 0
-0.540008 -0.059228 0.425935 127 0 127
-0.616213 0.040396 0.240665 153 76 0
0.811277 0.042540 -0.294539 76 0 153
-0.473705 0.087577 0.448215 153 76 0
0.692660 -0.019733 0.444490 153 76 0
-0.820997 -0.066803 -0.083939 76 153 0
-0.784362 0.087577 -0.397292 153 76 0
0.032041 0.065695 -0.549139 153 76 0
-0.739761 0.087577 -0.056462 153 76 0
-0.286579 0.087577 0.123119 153 76 0
-0.266494 0.087577 -0.358970 153 76 0
-0.737474 0.040396 0.119809 153 76 0
-0.794180 -0.024524 0.234007 76 153 0
0.083641 0.040396 -0.310065 153 76 0
0.789068 0.065661 -0.549175 153 76 0
0.150228 0.040396 -0.176237 153 76 0
0.628142 -0.047448 -0.392032 0 255 0
0.086256 0.087577 0.433639 153 76 0
-0.396464 -0.078677 0.446857 153 76 0
-0.131814 -0.045435 0.010402 76 153 0
0.615718 0.087577 -0.462742 153 76 0
-0.753770 -0.003418 0.325694 76 153 0
0.054030 0.087577 -0.300909 153 76 0
-0.547264 0.087577 0.052633 153 76 0
0.786128 0.018476 -0.325980 76 0 153
0.001665 0.040396 0.038089 153 76 0
0.107305 0.040396 -0.367437 153 76 0
-0.226325 -0.036376 -0.388527 0 255 0
0.812945 -0.029846 0.126842 76 0 153
0.739832 -0.061299 0.251705 127 127 0
-0.114213 -0.075382 0.216085 153 0 76
-0.622603 0.040396 -0.548269 153 76 0
-0.215446 0.087577 0.198756 153 76 0
0.461729 0.087577 -0.425510 153 76 0
-0.511314 0.087577 0.087263 153 76 0
-0.883329 0.040396 0.362029 153 76 0
-0.757867 0.040396 0.012441 153 76 0
0.214952 0.087577 0.187722 153 76 0
-0.758528 -0.332035 0.372930 204 51 127
0.364611 0.040396 0.160701 153 76 0
-0.374184 0.087577 -0.253555 153 76 0
-0.033752 0.087577 0.262737 153 76 0
-0.100369 -0.059976 0.262054 76 0 153
-0.310436 0.040396 0.060104 153 76 0
-0.808245 -0.249437 -0.520154 0 0 255
-0.375780 0.087577 -0.447992 153 76 0
-0.211884 0.040617 -0.587528 153 76 0
0.755449 0.011957 0.488647 153 0 76
0.816027 0.022372 -0.552888 255 0 0
0.195056 0.040396 0.290688 153 76 0
-0.819390 -0.172880 -0.463548 0 0 255
-0.049279 0.087577 0.404471 153 76 0
-0.641894 -0.059755 -0.537036 153 0 76
0.733406 0.038027 0.222527 153 76 0
-0.752694 0.087577 -0.231074 153 76 0
-0.847653 0.040396 -0.074597 153 76 0
0.692660 -0.019315 -0.530441 153 0 76
-0.373725 0.020051 0.445978 153 76 0
-0.869238 0.061701 -0.115794 153 76 0
0.620958 0.087577 -0.359702 153 76 0
0.759928 0.087577 -0.500899 153 76 0
-0.175876 -0.075382 0.347521 153 0 76
-0.836848 -0.087963 -0.450785 0 0 255
0.145568 0.087577 -0.356950 153 76 0
0.078403 -0.059976 0.401215 76 0 153
0.602562 0.087577 0.112733 153 76 0
0.220138 -0.038355 0.003564 0 255 0
-0.061369 0.087577 0.066456 153 76 0
0.504994 0.040396 0.094044 153 76 0
0.039831 0.021217 -0.510220 153 0 76
0.394944 0.018651 0.472795 153 76 0
0.077637 0.087577 0.287110 153 76 0
-0.267729 0.087577 -0.202925 153 76 0
-0.181124 -0.059976 0.407314 76 0 153
-0.350812 0.040396 -0.018245 153 76 0
0.792410 -0.196812 0.473247 153 0 76
0.786128 -0.076718 -0.326403 76 0 153
0.436787 0.059061 -0.558222 153 76 0
0.812945 0.037859 -0.207560 153 76 0
-0.114516 0.087577 0.238119 153 76 0
-0.450699 0.087577 -0.407242 153 76 0
-0.186557 0.040396 -0.560604 153 76 0
-0.007266 0.040396 0.095488 153 76 0
0.331154 0.087577 0.066770 153 76 0
0.640299 0.087577 -0.262956 153 76 0
0.563773 0.087577 -0.182876 153 76 0
0.688469 0.022423 -0.331705 0 255 0
-0.549963 0.087577 -0.235840 153 76 0
-0.700712 -0.009932 0.380378 153 76 0
-0.820997 -0.021408 -0.258574 76 153 0
0.723894 0.003571 0.488647 153 0 76
-0.244161 0.040396 -0.402063 153 76 0
-0.097011 -0.017328 0.281742 76 0 153
-0.715142 -0.002665 -0.389935 76 153 0
0.097902 0.008041 0.288269 76 0 153
0.065431 -0.059976 0.429430 76 0 153
-0.844251 0.087577 0.054304 153 76 0
0.893593 0.040396 -0.557423 153 76 0
-0.694265 0.040396 -0.256833 153 76 0
0.706466 0.087577 -0.420195 153 76 0
-0.111944 -0.014415 0.472795 76 0 153
0.023364 -0.049989 0.472795 76 0 153
0.029169 -0.016496 0.488964 255 0 0
-0.033225 0.040396 0.192715 153 76 0
-0.517625 0.087577 -0.267697 153 76 0
0.744497 -0.062920 0.211436 127 127 0
0.692660 -0.086707 0.395837 153 0 76
-0.794180 -0.051098 0.307912 76 153 0
0.065733 0.087577 0.409417 153 76 0
-0.648383 0.016353 -0.510220 153 0 76
0.665843 0.019767 0.440891 153 76 0
0.757229 0.087577 0.408725 153 76 0
0.182428 0.087577 -0.073213 153 76 0
-0.527307 0.087577 -0.509706 153 76 0
0.018029 0.040396 0.152412 153 76 0
-0.671458 0.087577 -0.370846 153 76 0
0.810392 0.001400 0.488647 153 0 76
-0.643266 -0.075362 -0.420564 0 127 127
-0.627343 0.018516 0.372247 127 0 127
-0.262569 -0.078677 -0.535013 153 0 76
0.770656 -0.125819 -0.435103 255 0 0
0.786128 0.019498 -0.153986 76 0 153
-0.603529 -0.011116 -0.424697 0 127 127
-0.649190 -0.060508 0.350399 127 0 127
0.381534 -0.072047 0.445978 153 76 0
-0.364778 0.040396 0.331200 153 76 0
-0.644901 0.012875 0.445978 153 76 0
0.167409 0.040396 0.148383 153 76 0
-0.447007 -0.044283 0.445978 153 76 0
-0.836848 0.019707 -0.461413 0 0 255
-0.134255 0.040396 0.202719 153 76 0
-0.104019 0.019861 -0.537036 153 0 76
0.032775 0.024824 0.458887 153 76 0
0.683075 0.042540 -0.519286 255 0 0
0.270139 -0.051096 0.445978 153 76 0
-0.851779 0.085943 0.468744 153 76 0
0.577868 0.008477 -0.537036 153 0 76
-0.146712 -0.059976 0.363765 76 0 153
-0.549482 0.012519 0.445978 127 0 127
0.093590 -0.059976 0.079738 76 0 153
0.079583 -0.059976 0.305468 76 0 153
-0.864773 0.065248 -0.179598 153 76 0
-0.797239 -0.304138 -0.516703 0 0 255
-0.632697 0.040396 0.338045 153 76 0
0.113562 0.087577 0.249232 153 76 0
0.454366 0.040396 -0.120344 153 76 0
-0.796090 0.042540 0.474479 153 76 0
-0.437724 0.040396 -0.308445 153 76 0
-0.002399 0.087577 0.107147 153 76 0
0.083610 0.038630 -0.510220 153 76 0
-0.073375 -0.075382 0.238375 153 0 76
-0.835841 0.040396 0.515099 153 76 0
0.222354 -0.046190 -0.510220 153 0 76
0.288931 0.040396 -0.201120 153 76 0
0.512256 0.087577 -0.211799 153 76 0
-0.794180 -0.066867 0.056585 76 153 0
0.123956 0.087577 -0.412041 153 76 0
-0.620407 0.040396 -0.289318 153 76 0
-0.582444 0.040396 0.375202 153 76 0
-0.375156 -0.030615 0.472795 153 76 0
-0.836848 -0.069912 0.465765 204 51 127
-0.390347 0.087577 -0.499949 153 76 0
0.786128 -0.037574 0.259328 76 0 153
-0.147946 0.087577 0.117035 153 76 0
0.130657 0.040396 0.115924 153 76 0
0.253281 -0.068703 -0.537036 153 0 76
-0.596593 0.087577 -0.421097 153 76 0
0.091753 0.040396 0.143176 153 76 0
0.729075 0.087577 0.419407 153 76 0
0.091547 0.087577 -0.439306 153 76 0
-0.581668 -0.005703 -0.482163 0 127 127
0.158890 0.087577 0.098387 153 76 0
-0.347799 0.040396 0.010863 153 76 0
0.123937 0.040396 -0.389724 153 76 0
-0.794180 -0.054756 0.196166 127 0 127
-0.013468 0.087577 -0.089994 153 76 0
0.812945 -0.031188 -0.379965 76 0 153
0.132183 -0.075382 0.320297 153 0 76
0.842643 0.087577 -0.042968 153 76 0
0.251021 0.087577 0.073314 153 76 0
0.430782 0.040396 -0.098203 153 76 0
0.888201 0.040396 -0.020018 153 76 0
0.786128 -0.049982 -0.019471 76 0 153
0.068859 0.040396 0.109949 153 76 0
-0.677439 0.040396 0.035924 153 76 0
-0.647488 0.040396 0.125229 153 76 0
-0.569349 0.040396 -0.293656 153 76 0
0.760979 -0.012513 0.194954 127 127 0
0.381457 0.087577 0.460264 153 76 0
0.878331 0.053830 -0.365122 153 76 0
-0.264148 0.040396 0.080601 153 76 0
0.054537 0.040396 -0.343427 153 76 0
-0.374616 0.017724 -0.537036 153 0 76
0.786128 -0.064976 0.127876 76 0 153
-0.569986 -0.042747 0.472795 153 76 0
0.243904 0.040396 -0.198459 153 76 0
-0.229888 0.040396 -0.306279 153 76 0
-0.737236 -0.307451 -0.514105 0 0 255
0.762091 0.056583 0.498938 153 76 0
-0.426005 0.087577 -0.219658 153 76 0
-0.212499 0.087577 -0.336582 153 76 0
0.859469 0.040396 0.275626 153 76 0
0.692660 -0.030376 -0.443186 255 0 0
-0.634495 0.011586 0.472795 153 76 0
0.639957 0.087577 -0.049695 153 76 0
0.822430 -0.092269 0.404691 153 0 76
0.023290 0.087577 -0.130186 153 76 0
-0.573681 0.087577 -0.102558 153 76 0
-0.673895 0.034025 -0.417796 153 76 0
0.786128 0.004737 0.135734 76 0 153
-0.888371 0.053370 0.264013 153 76 0
0.512115 0.034929 -0.510220 153 0 76
-0.192527 0.040396 -0.386355 153 76 0
0.035344 0.087577 -0.221913 153 76 0
-0.857031 0.073960 0.263557 153 76 0
-0.076448 0.064347 -0.550666 153 76 0
-0.672094 0.087577 0.073846 153 76 0
0.786128 -0.072439 0.272180 76 0 153
0.382879 0.040396 -0.324054 153 76 0
0.399980 0.087577 -0.391489 153 76 0
0.523975 0.087577 -0.382591 153 76 0
-0.844689 0.064430 0.486321 153 76 0
-0.427960 -0.057166 -0.510220 153 0 76
0.700220 0.087577 0.320475 153 76 0
0.144488 0.087577 0.163410 153 76 0
-0.694942 0.087577 -0.034154 153 76 0
0.665843 0.020003 -0.436269 153 0 76
0.399859 0.040396 0.172810 153 76 0
-0.028221 0.040396 -0.219161 153 76 0
-0.376970 0.069717 0.480975 153 76 0
-0.675948 -0.078677 0.429787 153 76 0
0.189949 0.087577 -0.233044 153 76 0
-0.001525 0.042540 -0.536328 153 76 0
-0.562215 0.087577 -0.040664 153 76 0
-0.034020 0.040396 -0.404366 153 76 0
-0.297170 0.087577 -0.317208 153 76 0
-0.221094 -0.012225 -0.365166 0 255 0
0.530797 0.040396 -0.310902 153 76 0
0.323092 0.087577 0.381444 153 76 0
-0.582469 0.013309 0.417120 127 0 127
-0.541203 -0.019512 -0.510220 153 0 76
-0.813002 -0.286133 -0.487172 0 0 255
0.723584 0.087577 -0.385425 153 76 0
-0.672284 0.042540 0.455894 153 76 0
-0.848825 0.087577 -0.506105 153 76 0
0.755464 0.040396 0.057023 153 76 0
0.585384 0.087577 -0.524128 153 76 0
0.741779 -0.033178 0.214154 127 127 0
-0.752866 -0.154808 -0.442430 0 0 255
-0.173743 0.087577 -0.526266 153 76 0
-0.073345 0.042540 0.452939 153 76 0
-0.877048 0.040396 -0.241890 153 76 0
-0.451323 -0.071282 0.472795 153 76 0
-0.213257 0.087577 0.440344 153 76 0
0.693800 0.040396 -0.587085 153 76 0
0.463658 0.010615 0.445978 153 76 0
0.133926 -0.075382 0.107958 153 0 76
-0.818299 0.042540 0.225370 153 76 0
-0.701311 0.087577 -0.519175 153 76 0
-0.769633 -0.001428 -0.294197 0 127 127
0.355622 0.087577 0.263326 153 76 0
0.772907 0.087577 0.278779 153 76 0
-0.248832 0.040396 0.193413 153 76 0
0.761016 0.087577 0.471217 153 76 0
0.083812 -0.059976 0.147755 76 0 153
-0.185607 0.040396 -0.270273 153 76 0
0.606021 -0.033287 -0.414154 0 255 0
0.264185 0.040396 0.226124 153 76 0
0.194459 0.040396 -0.214739 153 76 0
0.294845 0.040396 -0.382171 153 76 0
0.869915 0.040396 0.368843 153 76 0
0.862898 0.060568 0.420142 153 76 0
0.547651 0.087577 0.068271 153 76 0
-0.358591 0.040396 -0.278736 153 76 0
-0.573325 0.087577 -0.356607 153 76 0
-0.673895 0.026609 0.353606 153 76 0
0.512761 0.087577 -0.343707 153 76 0
-0.074171 -0.075382 0.168780 153 0 76
-0.879297 0.040396 -0.393259 153 76 0
0.738464 -0.078677 -0.296987 0 255 0
-0.181498 0.087577 -0.003367 153 76 0
0.411312 0.087577 -0.325738 153 76 0
-0.180044 0.040396 -0.133646 153 76 0
0.238039 0.071109 -0.543999 153 76 0
0.817348 0.087577 0.439408 153 76 0
-0.612824 0.087577 -0.029108 153 76 0
-0.194737 -0.014097 0.092118 76 0 153
-0.235662 0.040396 0.274158 153 76 0
-0.821531 0.042540 0.418311 204 51 127
-0.673895 0.042413 0.389076 153 76 0
-0.343120 0.040396 0.497668 153 76 0
0.041143 -0.059976 0.079150 76 0 153
0.764287 -0.096303 -0.516323 255 0 0
-0.730099 0.087577 -0.164634 153 76 0
0.474273 0.040396 -0.163657 153 76 0
0.733876 0.042540 -0.403294 153 76 0
0.665991 0.040396 0.003403 153 76 0
0.318117 0.086994 -0.536613 153 76 0
-0.767499 0.040396 -0.035286 153 76 0
-0.469509 0.087577 -0.375073 153 76 0
-0.651978 0.040396 -0.540632 153 76 0
0.661013 0.087577 -0.142935 153 76 0
-0.327895 0.087577 0.018057 153 76 0
-0.301112 0.040396 0.160481 153 76 0
0.225739 0.087577 -0.026318 153 76 0
-0.337313 0.040396 0.141659 153 76 0
-0.294511 0.087577 0.062255 153 76 0
-0.699316 0.007793 0.300274 127 0 127
-0.772040 -0.096393 -0.449358 0 0 255
0.163773 -0.059976 0.035682 76 0 153
-0.836848 -0.070694 0.379554 204 51 127
0.794226 0.040396 -0.510647 255 0 0
-0.665046 0.087577 0.238110 153 76 0
0.809651 -0.078677 0.338321 76 0 153
-0.220065 -0.044259 0.325840 0 255 0
-0.820997 -0.077914 -0.332997 76 153 0
-0.820997 -0.026978 -0.335633 76 153 0
0.141607 0.087577 0.271195 153 76 0
0.026176 -0.051331 -0.537036 153 0 76
0.704487 0.018076 0.287050 127 127 0
-0.371727 -0.063624 -0.510220 153 0 76
0.431244 0.018667 0.472795 153 76 0
-0.788920 0.057311 -0.561484 153 76 0
-0.420899 0.024992 -0.537036 153 0 76
-0.768550 0.014396 0.352511 204 51 127
-0.219861 0.040396 -0.073219 153 76 0
0.246578 0.040396 0.315919 153 76 0
0.093553 0.040396 -0.079632 153 76 0
-0.278461 -0.055518 -0.537036 153 0 76
-0.820997 -0.070694 -0.378745 76 153 0
0.066409 -0.075382 0.109109 153 0 76
-0.221539 -0.012225 0.311420 0 255 0
0.828796 0.021968 0.422444 153 0 76
-0.684629 0.020786 0.472795 153 76 0
0.724350 -0.075972 0.231583 127 127 0
-0.504868 0.087577 0.016084 153 76 0
-0.490632 0.087577 0.143663 153 76 0
-0.717089 0.040396 0.165288 153 76 0
0.220138 -0.011241 -0.289381 0 255 0
-0.441868 0.040396 -0.078296 153 76 0
-0.205560 0.040396 -0.236900 153 76 0
0.711979 0.042540 0.379261 153 76 0
-0.794457 -0.078677 0.153258 76 153 0
-0.636748 0.040396 -0.049451 153 76 0
-0.893967 0.040396 -0.084278 153 76 0
-0.684298 -0.055237 -0.379532 0 127 127
0.103343 -0.075382 0.374908 153 0 76
-0.513935 0.055633 0.501148 153 76 0
0.070442 0.040396 -0.404072 153 76 0
-0.700712 -0.041458 -0.537425 153 0 76
0.813592 -0.170879 0.431487 153 0 76
0.323106 -0.033589 -0.510220 153 0 76
-0.805789 0.087577 -0.245288 153 76 0
0.321725 0.040396 -0.375460 153 76 0
-0.753524 -0.096393 0.391682 204 51 127
0.543494 0.087577 0.404312 153 76 0
-0.214950 -0.012225 -0.029520 0 255 0
-0.027433 0.087577 0.162044 153 76 0
-0.457301 0.009500 0.445978 153 76 0
0.544692 0.012460 -0.510220 0 255 0
-0.098112 0.087577 -0.516873 153 76 0
-0.119063 0.061037 0.490834 153 76 0
-0.075818 -0.000584 -0.510220 153 0 76
-0.766423 0.087577 -0.437018 153 76 0
-0.275140 0.018564 0.445978 153 76 0
-0.794180 0.022179 -0.057606 76 153 0
0.049137 -0.075382 0.273353 153 0 76
0.005413 0.040396 -0.446838 153 76 0
-0.601346 -0.068772 -0.426881 0 127 127
0.493496 0.006595 0.472795 153 76 0
-0.858806 0.062660 -0.552778 153 76 0
-0.075012 0.040396 -0.214542 153 76 0
0.358436 0.087577 0.053161 153 76 0
-0.428440 -0.017692 0.472795 153 76 0
-0.826136 0.046910 -0.584759 153 76 0
0.757136 -0.076410 -0.263038 0 255 0
-0.678286 0.087577 -0.446626 153 76 0
-0.836848 -0.087024 0.412494 204 51 127
0.194029 -0.018394 0.022557 0 255 0
0.331355 0.040396 -0.300133 153 76 0
-0.618182 0.040396 0.390676 153 76 0
0.205219 -0.060125 0.149296 0 127 127
0.068510 0.087577 0.378473 153 76 0
0.852598 0.040396 0.070944 153 76 0
0.711749 0.040396 0.262273 153 76 0
-0.583628 0.040396 -0.112465 153 76 0
-0.310834 0.040396 -0.114240 153 76 0
-0.629757 -0.076264 -0.510220 153 0 76
0.593563 -0.030040 -0.537036 153 0 76
-0.701585 0.040396 -0.466463 153 0 76
-0.328584 0.087577 0.072485 153 76 0
-0.319011 0.087577 -0.287499 153 76 0
-0.003653 -0.059976 0.295898 153 0 76
-0.233887 0.070024 -0.544948 153 76 0
0.812945 -0.069779 0.054562 76 0 153
0.770195 -0.074738 0.352511 153 0 76
-0.119414 0.087577 0.069742 153 76 0
-0.753852 0.087577 -0.009068 153 76 0
0.044482 0.040396 -0.098505 153 76 0
0.729380 -0.323357 -0.447891 255 0 0
0.722510 -0.030149 0.488647 153 0 76
0.586465 0.016725 -0.433709 0 255 0
-0.689279 -0.078677 -0.340488 0 127 127
0.692032 -0.059245 0.263901 127 127 0
-0.820997 0.017118 -0.354950 76 153 0
-0.110989 0.040396 -0.248230 153 76 0
-0.441348 0.040396 -0.195378 153 76 0
